ply
format ascii 1.0
element vertex 1283
property float x
property float y
property float z
property uchar red
property uchar green
property uchar blue
end_header
0.0701285 0.378063 2.83057 30 16 8
0.032541 0.407819 2.81266 41 28 18
-0.0990651 0.34553 3.02228 44 22 12
-0.00686869 0.463191 2.78925 31 22 8
-0.051744 0.487225 2.79859 22 20 8
-0.495994 0.392952 3.56477 154 146 118
-0.456992 0.384354 3.64708 154 145 118
-0.485642 0.400782 3.59242 154 146 118
-0.493763 0.421911 3.5752 153 144 117
-0.482828 0.450057 3.61092 154 144 118
-0.403825 0.46902 3.64824 151 140 115
0.135912 0.647734 3.11044 68 35 30
-0.40741 0.501146 3.67852 152 141 116
-0.40794 0.521141 3.66843 152 142 118
0.0715243 0.75366 3.1029 79 44 36
-0.297248 0.564092 3.78163 151 139 119
-0.293241 0.589697 3.76085 150 138 120
-0.0390505 0.808234 3.15423 84 42 36
-0.29405 0.619273 3.79123 152 140 124
-0.264392 0.650406 3.79818 150 139 124
0.113928 0.844658 3.28126 78 32 26
-0.260748 0.714514 3.71444 138 128 110
-0.229732 0.713737 3.7265 108 107 86
-0.0102602 0.866128 3.27153 86 34 29
-0.185462 0.881809 3.54623 129 104 97
-1.20512 -0.375347 3.04482 118 126 76
-1.04184 -0.381251 3.08637 134 132 94
-1.08399 -0.279267 3.08098 156 154 96
-0.382446 -0.237615 2.69757 158 164 110
-0.358694 -0.218373 2.77256 158 164 109
-0.941801 -0.219436 3.06067 109 110 66
-0.561377 -0.207838 2.96631 157 162 106
-0.360995 -0.172344 2.83959 113 124 75
-0.503 -0.204179 2.98943 156 160 106
-0.709039 -0.15918 3.07986 104 110 70
-0.677111 -0.0354552 3.06503 104 109 68
-0.19602 -0.0441358 2.90762 120 113 67
-0.437142 0.00824501 2.91733 74 78 34
-0.656562 0.0303341 3.03016 100 104 66
0.189336 0.0766559 2.69943 149 164 115
0.0612091 0.16394 2.62898 148 163 115
0.133202 0.144839 2.70404 150 162 116
-0.431688 0.159514 2.87877 86 88 37
0.0710571 0.0942747 2.85602 147 154 108
-0.684467 -0.0520746 3.4086 148 144 83
-0.408309 0.0328824 3.19596 134 136 90
-0.747869 0.0348804 3.31227 147 144 82
0.0654229 0.252115 2.62601 96 89 58
-0.758348 0.0629233 3.29649 148 144 82
-0.568125 -0.020498 3.42503 148 146 86
-0.301913 0.260124 2.98173 71 72 56
-0.017449 0.32004 2.82554 36 34 16
0.069081 0.364017 2.86554 27 21 11
-0.0365091 0.428376 2.77867 40 28 18
0.0102921 0.449041 2.77277 43 26 14
-0.0152503 0.472499 2.78528 29 20 7
-0.555019 0.429866 3.52188 156 147 120
-0.389548 0.404413 3.74386 153 143 117
-0.458302 0.455167 3.6304 152 142 116
-0.0460346 0.704599 2.99375 64 31 26
-0.422309 0.48349 3.67761 152 142 116
-0.375554 0.488158 3.71644 152 142 117
-0.429285 0.53123 3.64961 151 140 117
-0.0856217 0.821203 3.1491 86 44 40
-0.226699 0.669296 3.82455 152 139 124
0.0927094 0.907815 3.37741 84 36 27
-1.11694 -0.390501 3.06826 106 110 62
-1.09444 -0.293619 3.06795 156 154 96
-0.341992 -0.27969 2.69792 157 163 108
-0.481819 0.0333974 2.88933 78 82 38
-0.99603 -0.0384719 3.28812 150 147 87
-0.638728 0.0178811 3.04506 99 103 64
-0.677222 -0.152472 3.42804 148 148 89
-0.62272 0.0572997 3.02779 84 88 51
-0.512637 0.0584779 3.00793 106 112 68
0.0609768 0.161783 2.63172 148 164 116
0.0464877 0.193567 2.62426 90 101 62
-0.459062 0.173778 2.85917 86 88 36
-0.0496381 0.150741 2.78652 142 148 102
-0.511884 0.0576791 3.37831 97 96 64
-0.210921 0.19299 3.01693 82 83 70
0.093218 0.217539 2.88069 60 46 22
0.0549826 0.268555 2.84179 50 45 22
-0.338819 0.184395 3.13931 44 46 20
-0.0120353 0.274747 2.87843 40 30 16
0.0144824 0.397243 2.83553 24 20 10
-0.0930869 0.344083 3.02095 46 26 16
-0.0203936 0.473906 2.78486 29 20 8
-0.0353424 0.467028 2.80553 26 22 10
0.012646 0.525253 2.77742 72 56 31
-0.0468825 0.665237 2.94915 69 35 30
-0.425535 0.420889 3.7027 154 144 118
-0.451519 0.459264 3.63557 154 144 118
-0.426901 0.461237 3.6813 154 143 118
-0.478538 0.497359 3.57275 153 143 117
-0.44259 0.491728 3.65605 152 142 117
0.115239 0.724001 3.09501 72 39 34
-0.328985 0.529812 3.77344 151 140 118
0.0675859 0.75399 3.09949 74 39 32
-0.285616 0.593252 3.76938 150 138 120
-0.278029 0.609244 3.81321 151 140 124
-0.359812 0.663046 3.60986 146 134 115
-0.109526 0.824724 3.16555 84 40 33
-0.25372 0.650365 3.81313 150 138 124
0.112635 0.845481 3.29477 80 32 28
-0.338565 0.743975 3.60933 110 108 87
0.0567159 0.857882 3.30599 88 37 31
-0.269918 0.81875 3.46579 102 70 65
0.0468733 0.910476 3.34358 87 37 28
-0.175088 0.811346 3.74982 150 136 128
-0.148797 0.873344 3.58224 129 104 98
-1.16905 -0.303459 3.04134 156 156 98
-1.02295 -0.375288 3.09611 132 130 92
-1.02254 -0.364688 3.15573 156 155 97
-0.500733 -0.0791547 2.74728 112 122 74
-0.755291 -0.203766 3.08998 105 109 70
-0.48052 0.0279675 2.89108 76 81 38
-0.289189 0.0604718 2.86039 104 100 58
-0.541183 -0.00382491 3.0981 84 87 50
0.174408 0.0780172 2.69334 148 163 114
-0.71642 -0.115226 3.38034 149 148 89
0.197791 0.109014 2.69253 148 164 114
-0.341497 0.0967988 2.91847 90 92 41
0.0434118 0.187896 2.62861 92 103 63
-0.872295 0.0663763 3.22929 117 114 58
0.065613 0.0962459 2.85829 144 148 104
-0.726673 -0.0336672 3.41234 146 143 80
0.115054 0.198905 2.69531 92 101 66
-0.709186 0.0749243 3.27846 148 147 87
-0.272477 0.153881 2.98736 61 66 40
0.00283283 0.268197 2.89115 40 29 16
0.0715467 0.260081 2.89312 34 27 12
0.08391 0.270783 2.88411 36 35 17
0.163755 0.263538 2.89237 20 18 8
0.132243 0.299533 2.89919 22 20 8
-0.0679877 0.331533 3.03436 46 26 15
-0.114634 0.51896 2.78838 45 36 23
-0.45122 0.458046 3.63434 153 143 117
-0.444848 0.481194 3.61239 151 142 116
-0.371544 0.545497 3.72223 151 140 118
0.0524302 0.759776 3.09723 78 42 36
-0.309894 0.569427 3.77389 150 140 119
-0.282475 0.592618 3.77604 151 139 121
0.0357902 0.791533 3.16192 76 36 28
-0.381541 0.674964 3.56298 144 132 113
0.0856311 0.848104 3.26926 80 32 26
-1.11642 -0.282626 3.06907 156 154 94
-0.345184 -0.288468 2.69669 158 163 108
-0.781535 -0.143509 3.04421 105 110 70
-0.838044 -0.167016 3.12075 152 154 96
-0.474614 0.0248859 2.71498 128 136 82
-0.323361 0.0783775 2.84046 106 102 58
-0.666056 -0.161192 3.43611 149 148 89
-0.40287 0.140664 2.89099 87 90 38
0.0555856 0.196607 2.63472 91 101 63
-0.882602 0.0668836 3.22968 116 112 56
0.0294287 0.193606 2.68421 151 165 116
-0.724425 -0.0401684 3.42002 147 144 81
-0.234543 0.186624 2.87771 62 68 53
-0.645167 0.0491062 3.33631 148 146 88
-0.69807 0.115989 3.31013 127 126 74
-0.283253 0.246066 2.98809 78 78 62
0.0348818 0.258721 2.91293 35 24 10
0.0973831 0.261613 2.89229 37 35 16
-0.0496239 0.349259 2.78135 22 19 10
0.120333 0.309561 2.89234 22 20 8
0.0622762 0.379179 2.78931 32 11 5
0.105886 0.343889 2.88639 25 18 9
-0.392242 0.330694 3.09134 54 68 27
-0.0534416 0.432745 2.80496 25 20 10
-0.0389392 0.466722 2.79927 27 23 10
-0.0441867 0.484533 2.77174 28 20 7
-0.0489672 0.474633 2.83332 28 22 11
-0.000557751 0.79582 3.14074 76 34 27
-1.14617 -0.449309 3.1167 158 160 102
-0.981044 -0.404546 3.13768 156 156 97
-0.813273 -0.231932 3.07804 151 152 94
-0.757234 -0.117737 3.03115 154 160 104
-0.757184 -0.0521186 3.04024 154 156 102
-0.608125 -0.00823261 3.03529 157 160 105
-0.212123 0.0268619 2.91494 84 86 46
-0.0458578 0.423847 2.76274 32 27 14
-0.000713741 0.452926 2.76715 30 24 13
-0.09523 0.501922 2.81546 59 52 34
-0.604791 0.0563857 3.03217 135 138 86
-0.718032 0.44404 3.19958 156 149 120
-0.693458 0.43858 3.22109 154 148 120
-0.685848 0.462617 3.18525 154 148 121
-0.36638 0.639994 2.78457 103 69 60
-0.329411 0.660811 2.74666 114 76 66
-0.66234 0.629666 3.04167 80 66 46
-0.664346 0.635008 3.04865 90 80 56
-0.641342 0.637473 3.06116 82 53 35
-0.61723 0.652761 3.10141 99 70 53
-0.615395 0.65801 3.08995 74 36 22
-0.61351 0.65736 3.10309 94 66 46
-0.933637 -0.32686 3.09269 158 156 97
-0.231599 0.0370839 2.89956 82 84 42
-0.125942 0.544293 2.76873 62 53 37
-0.0800983 0.529423 2.81701 86 74 64
-0.122071 0.557144 2.76042 38 34 16
-0.726259 0.438844 3.20788 155 148 120
-0.732844 0.450493 3.18058 156 149 120
-0.718287 0.44869 3.18212 156 149 121
-0.678498 0.504224 3.28471 152 144 116
-0.719802 0.590883 3.10979 150 142 113
-0.722098 0.596349 3.09955 150 142 114
-0.67599 0.627403 3.04732 105 104 74
-0.670821 0.63399 3.03288 82 65 46
-0.658774 0.628394 3.06864 106 104 74
-0.674131 0.637945 3.03944 86 76 52
-0.638889 0.636564 3.06125 79 46 30
-0.251664 0.580037 2.86339 74 40 30
-0.404969 0.642258 2.80655 96 60 50
-0.375739 0.672407 2.77661 104 69 62
-0.704049 0.581372 3.12781 150 142 114
-0.687568 0.580494 3.12691 148 140 112
-0.247625 1.01585 2.57925 156 148 138
-0.974081 -0.338843 3.09211 158 158 96
-0.694756 -0.173677 3.09639 152 158 102
-0.0424562 0.42746 2.77302 34 32 17
-0.0524538 0.442091 2.80064 28 29 12
-0.0704615 0.495175 2.81564 54 50 32
-0.0576261 0.511273 2.81397 75 64 50
-0.368854 0.642467 2.79425 106 70 64
-0.29456 0.654526 2.77426 114 77 66
-0.694597 0.558417 3.1267 150 143 114
-0.660594 0.527526 3.26229 152 144 116
-0.691298 0.580916 3.12725 148 140 112
-0.629881 0.659036 3.08826 92 60 44
-0.27778 1.01811 2.54176 158 149 140
-0.262456 1.00708 2.6218 154 146 138
-0.753971 -0.164894 3.07223 152 156 100
-0.0488728 0.438841 2.80705 28 30 14
-0.211993 0.445577 2.87722 27 22 13
-0.116702 0.57109 2.76699 50 37 21
-0.732353 0.460987 3.23222 154 146 118
-0.371486 0.64253 2.7902 106 71 64
-0.240803 0.991883 2.62589 155 146 137
-0.276751 1.02286 2.5647 156 148 138
-0.522941 0.0614935 2.99981 154 159 106
-0.100012 0.482098 2.83877 36 30 12
-0.0550291 0.524085 2.79442 33 34 14
-0.717357 0.602091 3.07623 149 140 112
-0.678106 -0.0413614 3.07124 152 156 98
0.0419582 0.165408 2.62172 154 167 118
-0.724614 0.544502 3.14798 153 144 116
-0.695826 0.586859 3.1317 151 142 114
-0.191987 0.669846 2.9254 66 30 22
-0.241967 0.197095 2.84166 68 78 50
-0.0429601 0.4778 2.8047 22 26 10
-0.0101477 0.535841 2.77407 50 35 15
-0.775958 0.492868 3.15838 154 146 118
-0.735533 0.542721 3.14032 154 145 117
-0.69035 0.557599 3.13166 150 142 114
-0.679408 0.581183 3.12514 144 136 108
0.0419487 0.161289 2.62503 154 167 118
0.0148689 0.202656 2.65163 145 157 109
-0.0623562 0.493971 2.82494 40 32 20
-0.52216 0.0657093 2.99724 147 153 102
-0.0574567 0.531932 2.8078 57 32 22
-0.0192312 0.135338 2.66531 110 120 90
-0.274005 0.221431 2.88888 87 92 66
-0.108196 0.498714 2.83434 90 64 56
-0.0469706 0.530893 2.80995 70 40 28
-0.281614 0.227065 2.87395 88 93 67
-0.688899 0.582561 3.13269 150 142 114
-0.763672 -0.188618 3.07486 152 155 97
-0.0121849 0.527781 2.77228 30 23 8
-0.731453 0.474409 3.15137 155 147 118
-1.13157 -0.524559 3.18824 159 160 102
-1.08824 -0.497042 3.16155 156 158 100
-1.16133 -0.554344 3.1838 159 159 102
-1.09793 -0.507876 3.16387 158 158 101
-0.0438021 0.476842 2.80697 56 43 24
-0.539729 -0.161471 2.95356 157 160 104
-0.755186 0.461596 3.15117 155 148 120
0.0342028 0.191062 2.68736 139 144 100
-0.379962 0.586538 3.00747 62 24 16
0.116864 0.62628 3.02706 117 94 86
0.114477 0.632951 3.04064 79 66 38
0.119338 0.629194 3.04469 106 88 54
0.0978099 0.726158 3.08716 116 96 80
-1.09186 -0.51101 3.16323 154 156 99
-0.685922 0.713629 3.12661 92 86 59
-1.21836 -0.646274 3.19766 157 158 100
-1.03945 -0.431103 3.14509 154 157 98
-0.685731 0.712634 3.12866 119 122 78
-0.674782 0.688625 3.1347 68 76 36
-1.05233 -0.48304 3.15465 153 146 114
-1.0965 -0.514417 3.16833 101 108 62
-0.981651 -0.405034 3.13653 124 123 82
0.152205 0.585846 3.0689 70 33 27
-0.0394413 0.474299 2.80117 24 18 8
0.176363 0.559966 3.02942 104 86 54
0.168895 0.571989 3.03887 116 96 62
0.147264 0.626661 3.09616 112 92 79
0.146125 0.626994 3.09367 94 76 46
0.149355 0.579542 3.0664 110 94 63
-0.337601 0.288739 3.00633 52 58 30
-1.17531 -0.601033 3.1883 159 159 102
-1.09021 -0.524219 3.17345 158 158 102
-1.09833 -0.452661 3.1663 158 159 102
-1.09518 -0.524816 3.16859 158 158 102
-0.00671892 0.473483 2.79325 88 81 73
-1.13448 -0.560858 3.17826 154 152 109
0.141838 0.693198 3.13849 102 64 51
-1.30841 -0.727437 3.21707 158 156 100
-1.31253 -0.707604 3.18824 156 156 100
-0.411333 1.04502 3.01866 138 118 112
-0.262588 1.1154 3.05768 97 68 64
-0.381328 1.16019 3.1248 146 130 128
-0.330194 1.1882 3.11716 146 131 130
-1.09058 -0.521833 3.16874 160 159 103
-1.09623 -0.514541 3.17206 159 158 102
-1.04495 -0.482284 3.164 158 159 102
-0.601307 0.0318545 3.08372 108 106 61
-0.000962643 0.473503 2.80225 16 17 8
7.69786e-05 0.49556 2.80108 19 14 6
-0.425936 0.966188 2.96876 107 78 62
-1.08931 -0.52254 3.1743 160 158 102
-0.427184 0.962216 2.96629 107 77 63
-0.128721 1.12355 3.13072 113 86 52
-0.38136 1.17163 3.15723 147 139 109
-0.318767 1.19069 3.11746 147 138 108
-1.12978 -0.55803 3.17215 158 158 100
-0.281362 1.21166 3.14442 100 93 78
-0.279972 1.2118 3.14303 145 134 102
-0.276797 1.21456 3.14133 92 83 76
-0.890124 0.357451 3.09979 88 66 32
-0.200779 0.464955 2.88737 91 82 62
-0.0438751 0.493985 2.79183 108 84 64
-0.0785892 0.557057 2.73745 103 63 54
-0.111364 1.12306 3.13672 63 49 24
-0.126139 1.11969 3.12625 104 88 58
-0.165917 1.17619 3.1355 100 88 74
-0.392441 1.1533 3.10256 124 114 102
-0.267701 1.20044 3.13666 150 146 119
-0.377723 1.18427 3.12698 150 142 112
-1.09321 -0.498777 3.15736 155 156 99
-0.99303 -0.436909 3.15902 157 156 98
-0.317097 0.28763 3.07734 84 59 43
-0.0938739 0.507545 2.77429 66 26 16
-0.105195 0.509297 2.78364 66 26 18
-0.0845158 0.518293 2.77236 86 44 31
-0.0790144 0.557206 2.74305 110 95 66
-0.560181 0.972866 3.11587 157 150 118
-0.554657 0.990168 3.13179 156 148 116
-0.400208 1.16215 3.12013 151 144 114
-0.993975 -0.437136 3.16684 153 150 92
-0.0877276 0.514397 2.75729 120 100 80
-0.887774 0.3752 3.10121 64 68 42
-0.0995882 0.502733 2.75799 116 94 86
-0.393816 1.1744 3.11876 155 144 128
-0.425299 1.20127 3.17794 98 94 81
-1.04557 -0.484394 3.169 102 109 68
-0.0399017 0.494357 2.80511 112 86 77
-0.430701 1.08066 3.06971 102 101 80
-0.26726 1.10558 3.0546 143 129 113
-0.879332 0.325212 3.10255 130 127 64
-1.16438 -0.54943 3.14615 116 96 66
-1.17119 -0.57953 3.14847 116 92 59
-0.407716 1.06834 3.05214 97 96 82
-0.866847 0.207546 3.16921 94 96 47
-0.192698 1.17137 3.11038 138 117 113
-1.21013 -0.626932 3.15501 152 150 90
-0.0667449 1.12076 3.15368 58 31 18
-0.165171 1.16462 3.13356 136 118 96
-0.161909 1.17435 3.13755 87 64 56
0.232113 0.160647 2.95163 110 94 65
-0.945438 -0.39318 3.1525 112 88 52
-0.104924 0.509802 2.78071 42 22 12
-0.0746957 0.523409 2.76257 96 97 50
-0.0976042 0.56766 2.72228 42 42 20
-0.0932472 0.567773 2.70765 92 92 50
-0.470497 0.69625 2.80989 57 23 16
-0.28359 0.836225 2.86177 130 101 82
-0.401783 1.04937 3.03158 116 94 61
-0.125356 1.11377 3.11615 140 119 79
-0.855705 0.384991 3.08901 64 71 45
-0.0435334 0.485439 2.76948 63 36 20
-0.0897626 0.526612 2.76325 152 146 106
-0.0784623 0.556066 2.73482 134 120 98
-0.0979029 0.56908 2.72899 108 107 64
-0.08164 0.569408 2.74442 132 128 98
-0.0782786 0.581448 2.76865 110 108 85
-0.631583 0.759062 2.99795 95 92 68
-0.287033 0.779184 2.83352 150 142 121
-0.45378 0.809534 2.87683 107 84 75
-0.453397 0.814996 2.88015 85 80 74
-0.276885 0.847126 2.85842 156 147 130
-0.277843 0.900173 2.94113 144 146 92
-0.274343 1.00765 2.96594 48 52 26
-0.410945 1.04893 3.03105 98 90 53
-0.363953 1.18866 3.14622 154 151 108
-0.267184 1.20602 3.15668 155 153 112
-0.530824 0.327037 2.92655 70 82 50
-0.0919614 0.5075 2.77636 156 150 115
-0.107347 0.510005 2.77958 116 101 69
-0.0922669 0.52575 2.75942 73 56 34
-0.293639 0.652772 2.74696 148 140 106
-0.291217 0.714262 2.78974 154 152 94
-0.462923 0.751107 2.84005 95 97 60
-0.28794 0.768864 2.82639 58 70 39
-0.275093 0.846832 2.86232 40 40 23
-0.442948 0.872017 2.92282 88 90 57
-0.429057 0.949133 2.96822 136 134 76
-0.561353 0.971474 3.10664 90 86 57
-0.426407 0.96759 2.9808 105 104 74
-0.436304 0.97553 2.98418 101 104 55
-0.523041 1.08005 3.15321 153 148 102
-0.420266 1.0801 3.05724 93 94 70
-0.26452 1.094 3.04526 90 88 49
-0.361115 1.19072 3.15049 44 40 19
-0.379305 1.18825 3.13672 44 52 33
-0.316845 1.21533 3.12576 118 117 80
-0.979237 -0.362268 3.13254 142 124 86
-0.20586 0.480896 2.70943 156 152 118
-0.0895966 0.512295 2.7543 154 150 118
-0.0758681 0.519359 2.75797 143 134 103
-0.0971855 0.524808 2.75674 114 109 102
-0.0770388 0.568812 2.72995 148 137 106
-0.30609 0.660964 2.75441 120 132 80
-0.293842 0.851602 2.88741 102 94 60
-0.441621 0.972599 2.97233 144 140 78
-0.204764 0.480063 2.71429 160 150 140
-0.0914565 0.507423 2.7813 136 116 112
-0.0800523 0.515548 2.7452 154 142 133
-0.450869 0.825488 2.96181 74 78 42
-0.428692 0.962617 2.97821 149 149 90
-0.0340042 0.476681 2.81995 116 91 81
-0.123741 0.522721 2.75399 147 149 110
-0.0819791 0.521305 2.74111 64 68 46
-0.465299 0.749699 2.85203 108 82 44
-0.852728 0.238705 3.05041 93 88 64
-0.475569 0.687012 2.8051 36 34 22
-0.636706 0.752579 2.99494 50 22 12
-0.848918 0.23415 3.0669 117 92 62
-0.0515314 0.489721 2.8497 120 122 80
-0.09126 0.527003 2.75062 151 142 114
-0.47347 0.545889 2.73365 58 64 30
-0.290243 0.715542 2.78942 142 130 114
-0.462205 0.754557 2.85072 156 144 137
-0.134781 1.11728 3.11936 119 122 72
-0.475988 0.545497 2.73149 118 87 72
-0.49381 0.579712 2.74721 146 135 119
-0.478541 0.634764 2.77475 158 156 120
-0.471849 0.684096 2.80294 148 141 104
-0.47073 0.693678 2.81029 67 42 21
-0.0635161 1.15248 3.20734 146 144 80
-0.427092 1.19676 3.16623 151 150 92
-0.0781421 0.51501 2.74382 152 141 124
-0.554526 0.575197 2.74259 145 140 112
-0.495467 0.579015 2.731 147 138 105
-0.479287 0.634209 2.77384 150 144 111
-0.342753 0.745472 2.78985 134 135 76
-0.407339 1.07026 3.05924 133 128 89
-0.264318 1.10746 3.05376 113 114 93
-0.341812 1.19073 3.11682 108 110 54
-0.643418 0.286235 2.58092 120 92 80
-1.2647 0.374448 2.54481 160 148 136
-0.0790988 0.556915 2.73147 118 122 69
-0.494436 0.581087 2.74725 149 148 92
-0.455963 0.81068 2.86776 113 108 53
-0.267039 0.850643 2.88561 54 60 39
-0.0711116 1.15274 3.19614 132 120 79
-0.165639 1.17788 3.13474 99 79 42
-0.317492 1.21215 3.11151 132 106 84
-0.0815408 0.519245 2.74088 108 116 70
-0.534389 0.58597 2.79032 150 146 86
-0.478982 0.634429 2.78174 78 81 52
-0.203546 0.481742 2.72449 152 143 126
-0.548127 0.577836 2.75052 118 92 54
-0.0456027 1.11551 3.15151 104 84 70
-0.130198 0.502798 2.71198 74 72 42
-0.15451 1.1842 3.17235 30 11 7
-0.536916 0.484046 2.66131 78 80 52
-0.500633 0.50402 2.68394 110 189 47
-0.458666 0.539848 2.74363 76 75 46
-0.476507 0.685802 2.80924 75 74 43
-0.414504 1.18166 3.16051 76 77 51
-0.309852 0.58141 2.68577 124 98 80
-0.369535 0.579824 2.67823 123 96 76
-1.21085 -0.631282 3.16763 139 134 95
0.262497 0.142773 2.96373 112 92 80
0.215612 0.134506 3.00668 121 102 87
0.258064 0.142028 2.95556 110 110 82
0.21328 0.137044 2.99869 55 42 20
0.211121 0.129964 3.01087 143 138 100
-0.44253 0.28664 3.06486 152 145 106
-0.444194 0.28623 3.06079 72 48 30
-0.396575 0.306668 3.05243 155 146 127
-0.41096 1.06288 3.04072 104 105 86
-0.308252 0.579778 2.69028 34 37 35
-0.621013 0.690007 2.90039 201 70 66
-0.499421 0.580539 2.75105 82 182 124
-0.621515 0.626889 2.86035 108 142 42
-0.683582 0.582535 2.88564 132 104 82
-0.475059 0.579577 2.74428 111 108 84
-0.306769 0.583502 2.70124 150 144 114
-0.276535 0.917156 2.92917 96 95 52
-0.106166 1.02902 3.05251 104 106 54
0.11909 0.315826 2.75715 90 92 48
-0.864253 0.15457 3.21914 82 84 44
-1.2087 -0.62974 3.16722 157 157 100
-0.896594 -0.350737 3.16512 154 156 98
-0.609268 0.00465416 3.10528 102 88 46
-0.826464 0.119317 3.33064 118 124 90
-0.852347 0.153493 3.22354 89 88 62
-0.862463 0.155001 3.21487 56 52 28
-0.85756 0.248497 3.1145 53 62 38
-0.88828 0.35709 3.09147 134 131 98
-0.0346156 0.486437 2.83262 135 110 80
-0.0452651 0.495284 2.83049 99 106 64
0.00028812 0.533582 2.77537 102 82 52
-0.0344446 0.568025 2.7954 94 74 43
-0.0783674 0.577831 2.73085 104 106 78
-0.541774 0.608039 2.98058 104 105 80
-0.0876322 0.583775 2.71872 48 52 26
-0.0838307 0.6506 2.8162 138 126 104
-0.594731 0.874422 3.07955 106 87 54
-0.282624 0.843483 2.86946 156 156 114
-0.283179 0.887273 2.88668 152 148 103
-0.433442 0.975901 2.97891 155 154 112
-0.418045 0.981424 2.98746 150 149 110
-0.274452 0.990921 2.95513 151 144 100
-0.273002 1.01217 2.96731 110 92 63
-0.0588673 1.12255 3.16475 106 88 56
-0.0437019 1.12977 3.19017 76 62 35
-0.400242 1.08606 3.05325 112 94 66
-0.125279 1.11064 3.1074 150 142 98
-0.134588 1.11625 3.11612 150 146 105
-0.164967 1.17517 3.1339 110 108 74
-0.364996 1.18329 3.12325 150 146 104
-0.245082 1.19567 3.14238 148 142 100
-0.263348 1.22362 3.18057 116 96 60
-1.16668 -0.525834 3.10117 72 54 44
-0.865062 0.153714 3.22963 142 122 80
-0.852753 0.153585 3.22696 118 116 104
-0.871202 0.203932 3.18918 83 79 48
-0.89485 0.248618 3.07473 106 104 76
-1.22576 0.297908 3.08922 134 129 94
-0.88912 0.373146 3.11926 68 66 48
-0.202178 0.451834 2.9 142 138 104
-0.0767296 0.518846 2.75162 155 147 110
9.85402e-05 0.535196 2.7827 134 126 92
-0.0714494 0.583204 2.7644 108 112 70
-0.0804652 0.589228 2.75614 148 142 110
-0.0859468 0.63709 2.79281 91 92 56
-0.0746808 0.65034 2.82364 142 144 90
-0.729534 0.734927 3.21515 136 128 96
-0.429072 0.949052 2.97392 115 104 78
-0.417038 0.980392 2.99048 104 104 82
-0.0564115 1.1161 3.14846 68 52 32
-0.113714 1.12024 3.12715 117 118 80
-0.262555 1.11622 3.0607 82 62 42
-0.24912 1.19828 3.14758 141 116 70
-1.30574 -0.702502 3.17247 100 102 52
-0.79105 -0.244959 3.10913 94 72 42
-0.889696 0.371516 3.11878 108 90 59
-0.0480092 0.494962 2.83151 64 46 25
-0.674462 0.515358 2.95257 121 118 74
-0.00379072 0.534763 2.77015 153 154 99
-0.0359067 0.567785 2.78677 116 101 64
-0.0822354 0.566621 2.71114 148 150 102
-0.0880492 0.57385 2.75773 114 109 72
-0.543322 0.575599 2.73372 140 125 82
-0.0731236 0.648345 2.81961 98 98 57
-0.693185 0.712965 3.03688 52 25 13
-0.714345 0.792375 3.2461 40 42 20
-0.67597 0.898875 3.34827 88 88 54
-0.283557 0.838312 2.85931 126 111 70
-0.292051 0.846367 2.87544 114 116 78
-0.272697 0.84793 2.87536 47 48 24
-0.5906 0.890361 3.0892 58 63 26
-0.517804 1.06406 3.08531 124 123 80
-0.40718 1.05501 3.04771 66 64 54
-0.40109 1.05287 3.03833 41 23 19
-0.0472884 1.12802 3.19356 48 32 23
-0.390682 1.16073 3.1222 148 144 100
-1.16689 -0.528208 3.09588 104 83 47
-1.10544 -0.455929 3.1619 136 132 91
-0.865005 0.156408 3.20653 157 147 128
-0.852432 0.153964 3.21688 73 33 19
-0.829118 0.317223 2.88697 106 79 76
-0.443038 0.447428 2.80243 124 118 90
-0.210787 0.457271 2.7627 122 95 60
-0.0855021 0.501478 2.76275 110 119 66
-0.108093 0.510456 2.78206 158 160 104
-0.0862595 0.563561 2.68819 141 145 94
-0.659455 0.709089 2.98273 150 150 93
-0.615806 0.767274 2.98625 146 138 78
-0.674659 0.8801 3.26932 103 100 64
-0.592979 0.891562 3.11646 48 55 30
-0.274923 0.839259 2.84151 40 28 13
-0.413184 0.98059 2.99 69 65 39
-0.269063 1.00299 2.9891 101 102 76
-0.421653 1.07531 3.04854 86 78 46
-1.11269 -0.504763 3.12148 96 94 68
-0.980072 -0.404857 3.13047 38 42 17
-1.24606 0.301847 3.11917 116 99 70
-0.826327 0.359613 3.05869 158 151 114
-0.0481682 0.493841 2.83711 114 92 56
0.00156042 0.494855 2.80474 102 104 56
-0.113762 0.510651 2.77818 88 64 51
-0.12028 0.523487 2.76713 152 138 120
-0.0826984 0.554571 2.71768 49 23 14
-0.0388597 0.571619 2.79234 108 88 76
-0.10986 0.571101 2.70802 90 78 64
-0.070495 0.585121 2.76674 44 18 13
-0.0725098 0.593153 2.81694 148 131 118
-0.0863575 0.639695 2.79908 158 155 112
-0.731463 0.718925 3.1421 126 118 88
-0.678234 0.884492 3.29283 107 98 60
-0.671904 0.939909 3.31608 112 108 90
-0.280616 0.911627 2.90862 106 107 68
-0.12575 1.12874 3.1318 88 74 48
-1.16841 -0.534087 3.09258 154 152 121
-0.835431 0.111972 3.27027 154 147 104
-0.81613 0.128205 3.2737 66 74 40
-0.852477 0.156713 3.21424 68 64 30
-1.24412 0.301873 3.09196 82 81 43
-0.837158 0.360629 3.15082 104 106 81
-0.0490698 0.494606 2.8362 96 82 64
-0.081614 0.576071 2.7616 76 72 58
-0.667044 0.707925 2.99135 117 92 76
-0.541653 0.753264 2.90059 116 101 68
-0.711174 0.825534 3.26003 114 88 54
-0.614873 0.775936 3.00897 115 86 68
-0.677763 0.890436 3.29508 60 66 31
-0.888843 0.367705 3.06761 102 81 71
-0.677578 0.697589 2.99643 28 11 6
-0.377698 1.17119 3.10061 34 12 9
-0.437327 1.07753 3.06891 13 4 1
-0.265613 1.09734 3.04858 72 134 38
-0.0350294 0.489096 2.78976 104 104 80
-1.09067 -0.523943 3.17565 110 96 78
0.0025027 0.548634 2.7772 146 142 78
-0.0840782 0.648819 2.81953 148 142 101
-0.00654625 0.543129 2.76543 106 100 86
-0.00288247 0.557126 2.78321 116 111 93
-0.0989466 0.526474 2.75334 115 94 58
-0.366382 1.16985 3.08087 108 85 49
-0.871716 0.20278 3.19141 83 76 62
-0.870978 0.201794 3.17937 156 158 122
-0.413088 1.20274 3.14413 151 146 101
-0.471185 0.54911 2.75012 35 22 5
-0.161545 1.16538 3.13604 68 31 24
-0.480469 0.546341 2.74805 79 82 54
-0.470893 0.545923 2.73377 92 89 46
-0.478132 0.634816 2.7748 40 33 20
-0.471806 0.684075 2.80511 40 38 20
-0.168404 1.17722 3.13014 113 88 70
-0.492133 0.581812 2.76156 52 40 20
-0.478198 0.63505 2.76919 145 140 76
-0.415575 0.977753 2.98365 142 116 90
-0.453731 0.810189 2.86619 138 117 68
-0.546058 0.578775 2.74891 127 110 84
-0.413877 1.06152 3.04281 122 126 93
-0.18839 1.18305 3.14603 101 106 62
-0.0372588 0.590773 2.88748 158 153 112
-0.477385 0.505241 2.75016 109 94 72
-0.475754 0.68551 2.82288 153 155 126
0.000331351 0.427783 2.7971 84 76 56
-0.672955 0.574848 2.87348 65 76 21
-0.289473 0.721323 2.8254 73 123 88
-0.555133 0.498334 2.82405 72 144 18
0.391974 -0.325745 2.3943 121 102 74
-1.14432 -0.510826 3.17375 108 106 87
0.164051 0.448847 3.04261 154 148 103
0.175116 0.502566 3.11399 68 78 42
0.169982 0.573624 3.1558 102 96 71
-0.487626 0.547194 2.74077 70 56 42
0.166984 0.677504 3.20887 77 56 41
0.167614 0.689232 3.20454 98 64 46
-0.0820019 0.635404 2.79862 118 90 74
-0.0950773 0.661607 2.82455 157 148 130
0.0564122 0.732482 3.03469 91 53 37
-0.461313 0.744257 2.82474 153 142 126
-0.0966074 0.756868 2.87629 157 146 136
-0.341947 0.74633 2.7911 118 97 84
-0.452197 0.816085 2.87403 158 155 114
-0.460963 0.816614 2.86365 109 89 58
0.0439278 0.896395 3.11902 154 154 112
0.0423208 0.908881 3.13237 92 86 54
-0.0598562 1.11636 3.1445 107 111 66
-0.0455862 1.12705 3.17955 66 74 43
-0.264489 1.08863 3.03252 150 147 105
-0.117595 1.11749 3.1091 95 96 52
-0.127475 1.17173 3.15002 156 152 116
-0.166695 1.18976 3.16864 80 64 28
-0.318195 1.21581 3.12353 158 151 114
0.0777564 0.409962 2.85524 106 114 68
-0.501408 0.452709 2.71281 144 138 92
0.185959 0.484173 3.09591 99 99 80
-0.0359278 0.485935 2.83366 112 90 52
0.0678947 0.494715 2.84497 98 70 43
-0.0436633 0.493124 2.79745 151 144 106
0.178992 0.536709 3.10816 98 96 78
-0.486898 0.546656 2.73757 146 136 108
0.176628 0.602273 3.1744 124 115 72
-0.0705747 0.58067 2.75565 112 86 66
-0.620331 0.62437 2.84394 130 102 88
0.0576433 0.734865 3.0564 156 153 112
-0.473173 0.695903 2.82534 122 102 64
-0.342205 0.745713 2.79165 102 112 66
0.0496608 0.808016 3.08065 117 96 56
-0.0515443 0.811117 2.93569 126 105 70
-0.446862 0.881098 2.9609 110 114 74
0.0350293 1.00938 3.20532 42 51 30
-0.418679 1.06756 3.02096 152 145 102
-0.0271411 1.14759 3.20044 112 108 72
-0.0632593 1.14499 3.18777 156 149 110
-0.126508 1.17358 3.16656 128 122 102
-0.449182 0.443097 2.73488 152 144 106
0.168506 0.515886 3.07178 120 92 86
-0.514368 0.492313 2.77614 109 82 45
-0.0866523 0.50245 2.76663 154 147 111
-0.0947791 0.506047 2.77436 152 144 110
-0.474905 0.506656 2.71668 146 138 112
-0.489506 0.545771 2.75786 108 114 62
-0.470116 0.545645 2.72529 152 148 88
-0.0117843 0.566988 2.81314 151 148 90
0.1412 0.621915 3.09805 154 161 104
0.167533 0.693658 3.22372 150 148 89
-0.0910022 0.699544 2.84012 148 143 80
-0.102046 0.713123 2.86429 99 103 54
0.0498039 0.788331 3.05837 98 98 58
-0.461185 0.746527 2.82397 92 97 57
0.0295943 0.800007 3.01133 106 111 61
-0.0136156 1.13585 3.23323 84 90 76
-0.395479 1.2092 3.15334 128 124 112
-0.207488 0.472971 2.74183 148 138 105
-0.204933 0.49406 2.71219 120 110 98
-0.474193 0.504338 2.68654 152 154 98
-0.110686 0.523961 2.79261 150 147 86
-0.479974 0.547363 2.74603 149 147 85
-0.302135 0.546733 2.66134 150 148 88
-0.551738 0.577508 2.76178 118 116 64
-0.620737 0.625339 2.85544 146 142 78
-0.0825441 0.645167 2.82534 106 104 60
-0.0959878 0.664573 2.84715 87 78 44
-0.293115 0.651968 2.74101 103 108 54
-0.47192 0.684854 2.78451 145 141 78
-0.104016 0.710381 2.85091 98 97 55
-0.541804 0.750904 2.89328 140 136 74
0.113065 0.881612 3.24501 63 67 39
0.041064 0.90403 3.13054 36 42 28
0.0309717 0.998699 3.16475 100 101 56
0.0165412 1.11251 3.23673 148 122 94
-0.0260426 1.09219 3.08873 130 110 69
-0.110039 1.11423 3.1157 104 108 76
-0.152055 1.18602 3.18034 116 118 90
0.0810644 0.411177 2.8685 94 90 64
0.0316459 0.444278 2.81307 112 109 92
-0.0872195 0.498973 2.77389 91 78 74
-0.476854 0.50479 2.72677 106 102 88
-0.117975 0.51561 2.76746 148 140 102
-0.0140224 0.523213 2.78088 108 109 58
-0.494443 0.545168 2.74192 99 98 62
-0.465579 0.545734 2.74454 140 138 80
-0.00684338 0.567411 2.81994 100 104 62
-0.0937984 0.587346 2.7838 148 139 121
0.164335 0.699475 3.2458 64 52 24
-0.0711076 0.650504 2.83527 121 100 64
-0.29311 0.649912 2.74594 118 97 56
-0.47427 0.687174 2.80234 154 148 102
0.0384435 0.745595 3.0352 139 118 80
0.0463166 0.798151 3.06976 154 154 112
0.092126 0.877664 3.15804 105 114 67
-0.285573 0.831719 2.8335 150 143 100
0.0385573 0.901752 3.1272 70 70 42
0.0288011 1.00101 3.17719 146 141 96
-0.432084 0.958356 2.96604 108 88 50
0.0709657 0.436144 2.83446 80 76 44
0.165893 0.456699 3.04796 92 78 50
0.0315445 0.442638 2.80109 73 62 46
0.0734154 0.53823 2.91724 141 135 92
-0.100658 0.527437 2.76503 121 120 105
-0.567323 0.539382 2.75852 94 92 78
-0.306905 0.546586 2.65661 156 146 132
-0.312319 0.575344 2.65909 153 141 130
0.0500582 0.612669 2.92467 124 90 74
-0.0889768 0.637419 2.787 122 100 66
-0.670856 0.698688 2.97411 148 140 110
-0.474493 0.689502 2.8032 152 144 112
0.0328155 0.742327 3.00758 155 154 121
0.0442433 0.795173 3.05916 103 100 61
-0.465688 0.75043 2.84665 112 118 66
0.132767 0.848581 3.27169 155 152 117
0.104557 0.951485 3.26929 148 139 96
-0.43239 0.955301 2.96333 118 118 69
-0.407179 1.21966 3.1845 115 113 72
0.0720066 0.497575 2.88276 101 128 113
-0.472072 0.496296 2.7007 83 78 71
-0.098765 0.525015 2.76786 78 74 61
0.0459871 0.684907 3.03906 79 74 66
0.131556 0.727238 3.22809 82 77 71
0.111498 0.799628 3.24872 81 76 64
-0.613619 0.755227 2.94119 74 72 42
-0.538462 0.75115 2.88909 78 80 52
0.0479376 0.797806 3.09338 79 75 62
0.132377 0.84119 3.26105 40 20 10
-0.124881 1.14258 3.17452 76 70 66
-0.191388 1.1883 3.15512 79 74 70
-0.560906 0.48135 2.76336 74 71 40
-0.468047 0.489242 2.7141 73 71 40
-0.0987352 0.50286 2.78949 89 70 39
0.0372754 0.678104 2.97738 80 76 63
0.0332268 0.748453 3.04163 82 78 68
-0.616207 0.774743 3.00323 80 76 63
-0.828743 0.277927 2.76176 42 50 26
-0.450712 0.468454 2.75891 88 58 40
0.0667994 0.494106 2.8402 156 131 90
-0.666403 0.510837 2.84592 153 146 102
0.0323111 0.560095 2.80757 144 128 94
-0.480638 0.55096 2.75485 66 52 35
-0.0908354 0.699091 2.83193 120 96 82
-0.0227917 0.833465 2.99672 130 110 70
0.0349749 1.00884 3.19224 91 84 54
-0.118474 1.03408 3.06009 81 64 34
-0.210685 0.458543 2.7666 116 118 76
-0.0106616 0.480231 2.8187 66 48 34
-0.0143976 0.56241 2.78335 114 89 54
-0.0939069 0.660578 2.83144 119 108 74
-0.146943 1.18702 3.18701 116 117 82
-0.380048 1.18949 3.13918 153 148 110
-0.395557 1.21107 3.15659 78 58 49
-0.209615 0.468078 2.74736 104 78 48
0.0645049 0.494736 2.81689 128 112 100
-0.482268 0.545533 2.73334 153 150 90
0.0413524 0.896585 3.1067 106 108 51
-0.664195 0.514518 2.88806 93 92 58
-0.0841306 0.588222 2.77218 98 91 50
-0.00893564 0.476868 2.80515 154 152 91
0.0554442 0.534239 2.82803 103 82 46
-0.00378983 0.541759 2.79058 106 96 60
-0.55794 0.984408 3.12219 144 116 91
-0.399494 1.20615 3.13635 88 76 69
-0.518836 0.485247 2.76992 158 153 114
-0.0424656 0.567353 2.75881 156 153 112
-0.531888 1.16399 3.23134 148 144 82
-0.558454 0.490228 2.78874 78 72 64
-0.51585 0.477735 2.75136 112 52 98
0.0401682 0.572648 2.83872 86 73 68
0.106229 0.375749 2.87675 61 38 21
-0.0819061 0.639082 2.80943 149 129 86
-0.304405 0.663001 2.75553 118 114 83
-0.0392696 0.569581 2.78772 64 62 46
-0.626039 0.681112 2.81904 150 144 101
-0.0896171 0.700329 2.8597 132 122 76
-0.376167 1.1802 3.12997 158 150 132
0.0459491 0.680882 2.99125 98 58 36
-0.291788 0.769883 2.81046 156 146 120
0.0310505 0.566787 2.84994 50 26 18
-0.501882 0.580921 2.76544 120 117 83
-0.294546 0.65265 2.75648 160 150 130
-0.310982 0.662306 2.76485 155 144 126
0.0659138 0.313176 2.87124 114 94 62
-0.315618 0.661272 2.76438 80 75 60
-0.283516 0.663666 2.74975 94 56 50
-0.59209 0.864692 3.01669 196 72 46
-0.280719 0.890003 2.89692 154 142 108
-0.415556 1.09091 3.08121 144 138 97
-1.11815 -0.470067 3.21077 90 92 80
-0.290157 -0.218532 3.1676 176 80 42
0.0689119 0.301094 2.95132 75 52 38
0.0793231 0.317562 2.97906 147 144 107
-0.441781 0.445893 2.7848 128 112 92
-0.459919 0.452714 2.75977 79 108 84
0.0715144 0.53273 2.88237 38 39 62
-0.282521 0.613801 2.7252 74 68 99
-0.292704 0.648262 2.7477 180 122 38
-0.636148 0.696164 2.92611 90 190 83
-0.585998 0.879778 3.02388 204 204 174
-0.276885 0.919378 2.92535 74 200 169
-0.698397 -0.159685 3.17229 68 78 43
-0.685684 -0.137557 3.05389 208 204 195
-0.734269 -0.10588 3.15938 66 69 120
-0.756153 0.284418 2.78964 76 104 100
0.0780579 0.300032 2.99946 121 106 62
0.0561158 0.610376 2.93147 202 77 48
-0.0929432 0.582664 2.70824 32 72 54
-0.280052 0.725171 2.80663 202 200 169
-0.288327 0.768255 2.8299 41 68 50
-0.522881 -0.661352 3.56305 132 132 80
-0.747513 -0.206677 3.178 206 202 188
-0.817087 0.246908 2.85659 78 106 84
0.0741899 0.533812 2.90404 44 82 90
-0.186395 0.537773 2.72295 76 141 50
-0.0159812 0.550215 2.7743 109 144 47
-0.694094 0.5697 2.85941 126 116 86
-0.173764 0.575634 2.72421 59 152 12
-1.0465 -0.386333 3.1735 112 130 60
-0.284743 -0.0841823 3.05818 36 40 66
-0.517573 0.49159 2.79125 163 169 145
-0.573184 0.541945 2.80833 152 30 19
-0.670557 0.57126 2.86056 26 64 142
0.0283867 0.564702 2.77023 157 159 150
-0.182863 0.561841 2.71118 160 146 12
-0.280699 0.911787 2.91574 166 144 138
-0.53389 1.16496 3.25112 36 38 66
-0.822386 0.245558 2.90201 56 42 25
0.0557971 0.304523 2.86854 85 102 88
-0.444371 0.461396 2.80156 118 152 94
-0.119076 0.512901 2.79318 102 148 37
-0.278168 0.653853 2.7228 101 74 88
-0.0946431 0.700323 2.84894 142 80 86
-0.686261 0.732333 2.8808 63 166 64
-0.289068 0.77402 2.82667 76 110 148
-0.271073 1.02827 3.05896 42 172 152
0.0706968 0.490591 2.86298 128 0 0
-0.180717 0.538975 2.76787 34 84 0
-0.106551 0.653187 2.80952 0 28 4
-0.30997 0.783833 2.84492 94 34 52
-0.279805 0.98233 2.89872 28 38 23
-0.457287 0.45331 2.77297 106 104 82
-0.21131 0.45744 2.75928 132 112 75
-0.528806 0.468833 2.78627 119 90 62
-0.0944783 0.506184 2.76612 138 130 92
-0.676072 0.571598 2.86234 92 94 78
0.0633464 0.493481 2.82034 66 40 26
-0.509142 0.500534 2.80669 92 56 42
-0.473708 0.502571 2.69281 48 28 18
0.0140944 0.575283 2.85904 120 116 102
-0.474171 0.58073 2.74452 110 102 80
-0.317922 0.517773 2.70628 154 141 134
-0.394076 0.924821 2.9204 108 116 61
-0.557079 0.986449 3.12839 38 36 22
-0.398995 1.08228 3.05022 128 128 76
0.0957956 0.38634 2.8046 112 94 52
-0.459828 0.544774 2.74322 152 146 102
-0.0391525 0.494502 2.82217 20 22 14
-0.734773 0.503632 2.85946 0 0 42
-0.038674 0.523557 2.6998 74 72 40
-0.0179085 0.537102 2.7368 42 44 20
0.354122 -0.31685 2.4035 148 146 84
0.354303 -0.311823 2.41695 149 146 86
0.326869 -0.288349 2.42632 63 67 35
0.366472 -0.322772 2.40631 64 65 50
0.335766 -0.290659 2.40007 124 106 82
-0.0116655 1.15046 3.26631 168 196 196
0.326066 0.230917 4.67442 73 72 40
-0.676358 -0.0402389 3.13639 102 100 61
-0.767026 0.0185625 3.33375 105 108 66
-0.126395 0.0479297 2.93063 117 119 79
-0.133959 0.0644204 2.79484 127 127 80
0.29683 0.0673167 2.8962 155 156 98
-0.806132 0.113336 3.36037 150 148 89
-0.859473 0.138311 3.37753 151 152 93
-0.222494 0.150385 2.88677 150 149 88
0.214844 0.139246 3.03715 112 118 64
0.252302 0.148133 2.9972 150 148 89
-0.680077 0.163125 2.94505 101 98 56
-0.335971 0.167775 3.06673 154 150 92
-0.185002 0.173312 3.19645 150 149 92
-0.133451 0.178378 3.47326 132 133 87
0.11123 0.182204 3.25816 128 126 77
-0.881408 0.200846 3.22123 104 110 65
0.108723 0.190653 3.26007 91 93 53
0.137106 0.19437 3.26201 102 103 55
-0.632237 0.218409 3.06455 156 154 94
0.0554835 0.23027 3.36706 149 146 86
-0.72098 0.269649 3.44054 154 154 96
0.154799 0.257307 3.18751 145 140 82
-0.420667 0.316013 3.08855 149 146 83
-0.918107 0.32912 3.25096 142 138 92
-0.743828 0.348846 3.30716 98 100 56
-0.755567 0.356149 3.40427 140 142 94
0.0977614 0.336096 2.76134 94 94 52
-0.777612 0.374571 3.41185 148 145 83
-0.787138 0.383782 3.4154 96 98 56
-0.784826 0.397832 3.32757 154 158 103
0.101818 0.361658 2.78819 147 143 79
0.088989 0.367818 2.71912 149 145 82
-0.765212 0.407969 3.15712 103 103 69
0.165815 0.448421 3.05192 113 114 65
-0.688325 0.467868 3.09871 108 114 64
0.189797 0.452143 3.05475 126 122 80
0.0660662 0.450404 2.817 98 96 53
-0.737912 0.508256 3.25355 102 106 52
0.182284 0.481084 3.05319 58 66 37
-0.714954 0.516566 3.17406 84 88 48
-0.758608 0.534747 3.31967 122 122 72
0.167378 0.500163 3.05778 102 98 58
0.168554 0.508985 3.04521 98 102 52
0.0629617 0.495951 2.81798 104 82 45
-0.741748 0.524613 2.87849 78 68 41
-0.202918 0.498348 2.62909 152 145 99
-0.748953 0.545515 2.93717 95 100 56
0.0735591 0.537423 2.92234 144 137 92
0.0788288 0.537714 2.90038 106 105 86
0.163787 0.564892 3.1407 138 132 94
-0.789717 0.588777 3.19285 138 132 87
0.168122 0.571612 3.14603 69 76 36
0.152191 0.573471 3.13531 152 144 100
0.00722712 0.547523 2.79163 90 84 72
0.0564697 0.545117 2.79056 126 122 94
-0.709926 0.580499 2.96632 106 108 75
-0.675345 0.577389 2.8911 156 138 118
-0.0719783 0.579573 2.73655 102 84 65
-0.0858864 0.582159 2.73642 106 108 75
-0.076769 0.585382 2.75316 159 150 125
-0.0911979 0.589191 2.73756 120 92 74
-0.729308 0.663402 3.09037 160 151 126
0.169752 0.681534 3.21785 64 50 24
0.168659 0.689471 3.20297 142 119 98
0.146524 0.691864 3.148 95 77 44
-0.0758765 0.65213 2.81879 157 148 123
-0.621109 0.690328 2.90311 70 40 26
0.122933 0.778815 3.21449 152 122 100
0.0517652 0.785919 3.05996 138 104 78
-0.0992375 0.771507 2.89186 80 58 30
-0.109124 0.776693 2.88951 44 32 15
0.0464365 0.802896 3.02979 53 38 22
-0.456054 0.814996 2.898 91 92 69
-0.451646 0.817242 2.87685 152 142 117
0.111251 0.907347 3.30091 124 120 98
-0.587191 0.863175 3.01318 113 107 84
-0.284609 0.838381 2.87198 160 151 131
-0.582639 0.885044 3.03968 130 129 110
0.0434683 0.894472 3.11585 114 86 70
-0.27382 0.994405 2.96952 155 146 122
-0.521078 1.081 3.16699 68 28 18
-0.523347 1.11475 3.25199 158 150 130
-0.419327 1.08435 3.06308 64 24 16
-0.404901 1.09243 3.08049 65 27 17
-0.391942 1.21126 3.14983 152 140 124
-0.170924 -0.203081 3.2615 148 140 111
-0.205646 -0.0511836 3.18643 154 146 116
-0.133138 -0.0169088 3.15697 156 162 108
-0.096727 0.0260861 2.76961 151 158 107
-0.65719 0.0610554 2.83177 160 160 101
0.294567 0.0626951 2.88148 160 160 102
-0.672185 0.0834217 3.11357 134 132 83
-0.597727 0.121585 2.90642 157 161 106
-0.626829 0.120515 2.99444 156 156 96
-0.823194 0.11767 3.31243 120 116 76
-0.820532 0.112416 3.42065 114 112 70
-0.659927 0.131858 3.04428 156 158 102
0.253668 0.145163 2.98627 150 152 95
-0.54989 0.178931 2.91279 152 152 92
-0.18619 0.172671 3.21419 152 146 114
0.143901 0.180418 3.01532 134 135 85
0.16827 0.173794 3.30993 151 154 96
-0.192361 0.187401 3.13076 114 116 62
-0.136647 0.180929 3.38193 149 140 108
-0.128248 0.185919 3.45518 109 112 70
0.125053 0.188537 3.25404 150 146 86
-0.692548 0.209542 2.78337 151 148 88
0.059444 0.228016 3.2714 106 108 64
0.059286 0.229661 3.44842 154 154 96
-0.907734 0.247786 3.15499 154 154 98
-0.851325 0.249024 3.111 150 148 88
0.0164774 0.233946 3.45274 140 139 82
0.147456 0.257787 3.11857 130 130 80
0.126984 0.281869 3.22849 152 150 90
0.103614 0.292674 3.03187 156 156 98
-0.900683 0.321567 3.07781 152 150 90
-0.792673 0.399096 3.36769 102 103 56
0.172943 0.392437 3.022 126 110 65
0.184798 0.455491 3.10946 154 152 92
-0.715951 0.467266 2.88536 114 110 68
-0.767969 0.495383 3.16152 150 150 94
-0.741225 0.509829 3.26877 104 103 60
-0.455007 0.470531 2.79176 104 109 56
-0.754647 0.52926 3.21602 79 74 41
-0.72782 0.526844 3.14493 104 106 62
-0.677792 0.513462 2.9418 144 140 76
0.169572 0.525992 3.16114 113 112 76
-0.722633 0.546106 3.17065 105 110 60
0.101003 0.513918 2.88625 56 66 26
-0.206287 0.506132 2.69219 136 132 70
0.0926618 0.522565 2.89093 84 88 58
0.0864433 0.533942 2.88495 102 106 53
0.174209 0.562687 3.1679 53 63 34
-0.773276 0.604227 3.19482 118 114 87
-0.72062 0.583487 3.00839 155 148 104
0.00185974 0.549488 2.7713 149 142 96
-0.683727 0.581578 2.89576 108 110 86
-0.0812531 0.576287 2.76278 150 142 100
-0.0868525 0.576402 2.68763 142 136 96
-0.092302 0.592057 2.76259 36 50 27
-0.676048 0.675496 3.10088 100 100 64
-0.090378 0.704949 2.85823 160 150 125
-0.103377 0.837051 2.96491 156 148 120
-0.108093 0.914308 2.97946 122 104 80
-0.110935 0.927367 2.98213 105 106 74
-0.556353 0.97472 3.10025 88 64 42
-0.269332 1.00675 2.94677 107 82 66
-0.36987 1.19467 3.15808 67 54 42
-0.686712 -0.0511386 3.15171 148 132 128
-0.666085 -0.0367029 3.07675 154 142 131
-0.840718 0.057454 3.36665 156 144 136
-0.2432 0.076432 3.26051 158 148 134
-0.628593 0.121314 2.99743 110 90 58
-0.83837 0.115777 3.37885 126 104 68
-0.63757 0.139668 2.89813 156 156 99
0.21649 0.135337 3.00701 122 96 62
-0.333564 0.16618 3.06752 156 150 118
-0.136544 0.175919 3.49015 58 37 16
0.125084 0.176491 3.2706 154 146 116
0.129095 0.186662 3.26782 158 160 102
0.0935567 0.201316 3.27806 157 156 98
0.0600421 0.227342 3.42068 158 158 100
-0.864067 0.248629 3.1657 158 160 104
-0.426737 0.313123 3.10799 158 160 104
0.105226 0.362103 2.84266 144 143 90
0.103423 0.385324 2.95722 154 158 102
0.164599 0.389317 2.94888 154 155 98
-0.440071 0.461912 2.83175 156 156 98
0.178831 0.478189 3.04958 152 152 92
-0.448377 0.465453 2.74525 154 156 98
-0.750871 0.525403 3.19208 114 116 68
0.175791 0.514517 3.08166 108 92 51
0.0929349 0.519279 2.87046 56 61 42
0.173041 0.541894 3.08698 150 148 88
-0.773849 0.563294 3.09254 58 66 25
0.0688027 0.534371 2.87499 83 82 48
0.0871552 0.541194 2.99323 96 95 52
-0.767438 0.577404 3.09931 57 58 28
-0.000942413 0.538676 2.79156 104 108 60
-0.740009 0.582419 3.03618 142 143 91
-0.757352 0.611348 3.20985 132 132 78
-0.682804 0.583319 2.93631 143 140 76
-0.0753837 0.587837 2.80208 65 76 34
-0.0922977 0.584905 2.71352 98 102 50
-0.689796 0.669525 3.10476 152 146 102
-0.294432 0.653118 2.76285 108 107 80
-0.634092 0.698145 2.95683 152 145 98
-0.47073 0.682346 2.78574 152 146 100
0.130877 0.749588 3.12987 148 142 96
0.0448067 0.737695 3.0298 150 142 98
-0.63429 0.75994 3.00962 150 145 102
-0.686005 0.798096 3.14383 86 88 38
0.0490671 0.781752 3.02455 103 104 80
-0.661335 0.890328 3.23592 68 52 29
-0.456688 0.815604 2.89752 72 67 36
-0.274243 1.01908 3.00259 115 88 72
-0.262788 1.10214 3.0243 158 150 126
-0.146403 1.20537 3.24475 144 120 104
-0.675086 -0.041924 3.10199 160 150 132
-0.757214 0.019654 3.27094 150 140 114
-0.605026 0.0335716 3.17117 116 81 62
-0.133252 0.0643468 2.79864 112 88 77
0.294255 0.0662522 2.88133 102 96 70
-0.793913 0.0736938 3.14321 50 46 18
-0.668134 0.0822321 3.09744 148 137 120
-0.250301 0.103497 3.06281 124 95 82
-0.590926 0.123713 2.86952 148 136 114
-0.641978 0.138505 2.91957 152 139 132
-0.748683 0.127523 3.39588 150 138 124
-0.138974 0.176149 3.44303 153 142 124
0.096478 0.197812 3.19728 152 138 130
-0.6248 0.209737 3.09544 124 113 94
-0.603148 0.224607 2.89921 164 153 142
0.00227338 0.226574 3.37091 109 76 70
0.151923 0.257496 3.13372 152 148 118
-0.455808 0.285242 3.13263 155 142 135
0.112594 0.277348 3.06668 120 89 81
-0.318898 0.287033 3.10457 158 147 140
0.109314 0.294212 3.1228 159 154 122
0.139551 0.29235 2.74258 115 84 78
-0.74412 0.354331 3.32927 149 141 110
-0.793708 0.403783 3.35395 155 148 118
-0.815203 0.414834 3.15018 62 66 32
0.182969 0.396968 3.11789 159 160 103
0.182859 0.456191 3.09649 158 159 102
0.200527 0.462601 3.12492 149 140 108
0.0663337 0.445856 2.81782 150 140 107
-0.438321 0.457491 2.79311 153 156 98
0.184141 0.473743 3.06808 120 117 94
-0.723735 0.48173 2.95588 152 150 90
-0.730647 0.504643 3.21104 112 120 71
-0.455886 0.473097 2.80314 150 148 88
-0.834126 0.524628 3.13378 154 152 93
-0.555381 0.498596 2.8329 150 148 88
0.067784 0.49636 2.83774 154 158 103
0.175417 0.519146 3.10223 104 110 70
-0.741103 0.527994 2.87368 98 96 53
0.0967298 0.532614 2.96487 152 153 96
-0.735282 0.546771 2.92018 115 112 66
-0.782406 0.585863 3.09211 151 148 88
-0.755257 0.588568 3.09743 114 110 69
0.164472 0.574618 3.12076 152 150 94
-0.740959 0.59277 3.09592 110 112 54
-0.465669 0.545368 2.72971 148 145 83
0.0520302 0.589464 2.99749 78 80 42
-0.299812 0.561886 2.61202 146 144 92
0.148957 0.627881 3.15534 140 134 82
-0.309495 0.579929 2.67744 144 146 96
-0.0937386 0.590824 2.77014 98 97 54
-0.733239 0.663838 3.10825 108 105 64
-0.690178 0.671597 3.10292 101 99 57
-0.63555 0.636369 2.86637 152 154 97
0.0632548 0.667148 3.0112 144 142 86
0.0524751 0.675631 2.99535 102 104 62
-0.304592 0.660782 2.75124 148 146 84
0.0547278 0.728969 3.02103 129 124 84
0.0426107 0.738373 3.01869 106 106 64
-0.596945 0.741638 2.87164 40 39 16
-0.0985367 0.754432 2.84171 108 110 59
-0.569438 0.77757 2.91527 112 110 78
-0.452851 0.762227 2.84841 137 132 72
0.0501042 0.805693 3.07269 102 105 53
-0.290762 0.768225 2.82646 100 102 63
-0.577084 0.881818 3.0399 140 134 82
-0.608637 0.973457 3.17498 160 150 124
-0.100418 0.926753 2.98555 92 96 58
-0.39462 1.07185 3.01695 30 37 20
-0.264126 1.09647 3.0569 104 106 74
-0.675107 -0.0410193 3.10218 156 146 120
-0.768118 0.0163042 3.30234 68 72 50
-0.596088 0.0381143 3.10211 163 152 136
0.286282 0.0685713 2.85555 46 56 28
-0.254793 0.101423 3.0605 112 86 66
-0.819856 0.119828 3.32787 116 91 78
-0.802334 0.116444 3.32989 158 148 124
-0.674385 0.146955 2.98463 110 96 78
-0.754791 0.152791 3.27105 159 150 134
-0.182787 0.166172 3.24922 96 94 71
-0.557018 0.182826 2.95048 126 109 82
0.131904 0.173689 3.42352 155 146 126
-0.685397 0.233737 3.39998 97 94 70
0.0596042 0.227171 3.43304 110 86 72
-0.848228 0.246395 2.89151 116 89 78
0.104413 0.292189 3.07454 106 76 59
-0.903563 0.319848 3.05061 63 40 20
-0.759206 0.341985 3.15497 120 92 68
-0.751938 0.353508 3.36627 114 106 86
-0.859478 0.355797 2.9622 158 147 139
0.145886 0.365372 3.04318 158 146 128
-0.773824 0.406849 3.20345 118 88 79
0.101985 0.38407 2.93446 124 91 80
0.155188 0.443197 2.93476 132 105 92
0.0343681 0.44072 2.80178 104 78 70
-0.755799 0.522183 3.20815 158 150 118
0.176929 0.499263 3.10252 156 149 118
-0.11662 0.520195 2.73059 55 64 26
0.0805785 0.541057 2.95816 124 130 79
0.168089 0.55615 3.11408 93 98 53
-0.780628 0.583386 3.08019 156 160 103
-0.0351531 0.572831 2.81582 106 105 63
-0.105904 0.573526 2.73298 151 150 92
-0.0963898 0.581386 2.72143 149 146 84
0.15618 0.682824 3.13941 130 127 76
0.0479552 0.677866 2.986 127 122 72
-0.0943507 0.701527 2.85929 148 144 82
-0.45832 0.737984 2.78632 104 90 48
-0.70531 0.842455 3.27135 150 154 104
0.0466411 0.788086 3.05388 146 142 78
-0.111302 0.712915 2.60169 140 138 84
-0.585702 0.897044 3.10132 146 142 81
-0.645158 1.03103 3.4017 140 136 78
-0.360327 1.18501 3.12542 60 47 32
-0.0258595 -0.052107 2.77863 144 118 90
0.300567 0.0636497 2.94697 155 126 104
-0.793367 0.118441 3.28556 157 148 122
-0.817134 0.121838 3.29675 160 150 125
-0.339712 0.156223 3.18665 156 128 107
-0.860176 0.19841 3.14659 62 29 14
0.1295 0.178046 3.42325 158 148 124
0.0462081 0.229173 3.19652 92 88 64
-0.904095 0.243975 3.33796 164 154 136
-0.663107 0.261175 2.96178 144 112 86
-0.456968 0.28129 3.06483 114 114 89
0.0833489 0.282263 2.81631 65 48 26
-0.933994 0.323872 3.14771 102 101 69
-0.755833 0.353096 3.32813 152 142 123
-0.758193 0.404562 3.12569 160 151 137
-0.652537 0.460441 2.94783 150 140 120
0.212862 0.475883 3.23535 118 92 80
-0.459637 0.46762 2.92132 58 30 12
-0.828685 0.516523 3.37463 159 149 138
-0.760638 0.521796 3.36441 107 82 70
-0.503808 0.546622 2.7825 152 144 112
-0.0780703 0.570497 2.7279 155 149 114
-0.112625 0.5756 2.7402 160 156 126
-0.753713 0.679191 3.18718 52 58 30
-0.0974823 0.710743 2.61089 104 110 71
-0.284279 0.749147 2.71438 148 146 84
-0.50885 0.930298 3.38528 146 142 80
-0.392712 1.15838 3.08315 128 124 68
