ply
format ascii 1.0
element vertex 1272
property float x
property float y
property float z
property uchar red
property uchar green
property uchar blue
end_header
-0.777205 0.633361 1.094 138 128 110
-0.79103 0.624018 1.06254 108 107 86
-0.805012 0.372498 1.05332 104 110 70
-0.604127 0.437571 0.977463 150 164 116
-0.830448 0.433166 1.08554 147 144 82
-0.617869 0.455314 0.946094 96 89 58
-0.642086 0.501777 0.967504 40 28 18
-0.653015 0.510649 0.952183 29 20 7
-0.818751 0.540029 1.07566 154 146 118
-0.81344 0.560913 1.09686 153 143 117
-0.680406 0.576303 0.966514 64 31 26
-0.806765 0.573888 1.0983 152 142 116
-0.786314 0.619777 1.11855 151 140 123
-0.793313 0.625376 1.08843 152 139 124
-0.901053 0.313434 1.04233 156 154 96
-0.806191 0.400473 1.02619 106 110 70
-0.866593 0.399243 1.11812 150 147 87
-0.767712 0.420708 1.01406 106 112 68
-0.614204 0.442154 0.955985 90 101 62
-0.632599 0.503547 0.985705 24 20 10
-0.656298 0.510386 0.949609 29 20 8
-0.658411 0.520288 0.935781 72 56 31
-0.818878 0.558698 1.08602 154 144 118
-0.81631 0.56563 1.08319 154 143 118
-0.806551 0.566834 1.08616 153 143 117
-0.809835 0.572622 1.09277 152 142 117
-0.671354 0.599261 0.978934 74 39 32
-0.79077 0.605823 1.11302 150 140 120
-0.806531 0.607738 1.08077 151 140 124
-0.786213 0.610804 1.08295 146 134 115
-0.799166 0.618627 1.08431 150 138 124
-0.785011 0.627634 1.07281 110 108 87
-0.876982 0.316407 1.05064 132 130 92
-0.888829 0.330128 1.03995 156 155 97
-0.815031 0.361833 1.05773 105 109 70
-0.609353 0.440971 0.963214 92 103 63
-0.839062 0.423903 1.09343 117 114 58
-0.843361 0.430387 1.08509 146 143 80
-0.644475 0.482755 0.984126 36 35 17
-0.811015 0.562779 1.08855 153 143 117
-0.807029 0.573534 1.09762 152 142 116
-0.808602 0.588665 1.08625 151 140 118
-0.808144 0.596232 1.0792 150 140 119
-0.678945 0.612696 0.990642 76 36 28
-0.785977 0.608989 1.07563 144 132 113
-0.840776 0.423965 1.09147 116 112 56
-0.651299 0.483526 0.968102 22 19 10
-0.639163 0.492975 0.982312 22 20 8
-0.662871 0.508532 0.951262 27 23 10
-0.64952 0.511891 0.955212 28 20 7
-0.919519 0.309964 1.0086 158 160 102
-0.792327 0.339524 1.12795 151 152 94
-0.70248 0.345589 1.25132 154 160 104
-0.80064 0.385266 1.06007 154 156 102
-0.78693 0.405176 1.02695 157 160 105
-0.624399 0.417452 1.10321 84 86 46
-0.566739 0.508616 1.04184 32 27 14
-0.64473 0.506089 0.953922 30 24 13
-0.671903 0.516055 0.949116 36 36 16
-0.517035 0.543669 1.11497 59 52 34
-0.591824 0.403006 1.35139 135 138 86
0.607061 0.899776 3.82975 156 149 120
0.104683 0.768202 2.83505 154 148 120
0.904972 0.996292 4.27094 154 148 121
-0.723911 0.54406 0.934732 66 32 27
-0.849003 0.32544 1.07123 158 156 97
-0.600924 0.415536 1.1324 82 84 42
-0.400794 0.570788 1.21985 62 53 37
-0.686491 0.519435 0.933584 86 74 64
-0.662245 0.523079 0.947582 38 34 16
0.47535 0.863461 3.61116 155 148 120
1.5984 1.16204 5.76289 156 149 120
1.16128 1.04133 4.86229 156 149 121
-0.046778 0.813858 2.58699 152 144 116
-0.914552 0.299594 1.04825 158 160 102
-0.857801 0.320682 1.07073 158 158 96
-0.800549 0.37134 1.06239 152 158 102
-0.5618 0.511559 1.0491 34 32 17
-0.572369 0.51706 1.04807 28 29 12
-0.675202 0.513895 0.946872 54 50 32
-0.672695 0.517813 0.945136 75 64 50
0.224842 0.920997 3.04785 152 144 116
-0.762665 0.353846 1.15338 152 156 100
-0.614534 0.510903 1.00597 28 30 14
-0.406759 0.55202 1.30677 27 22 13
-0.366542 0.587044 1.24747 50 37 21
0.438272 0.900785 3.59558 154 146 118
-0.609581 0.410009 1.26494 154 159 106
-0.676752 0.51327 0.956161 36 30 12
-0.806737 0.399621 1.0252 152 156 98
-0.598914 0.435107 0.973514 154 167 118
-0.842619 0.522246 0.958629 153 144 116
-0.805545 0.402493 1.0205 152 154 98
-0.59663 0.43284 0.983214 154 168 117
-0.718121 0.551045 0.939123 66 30 22
-0.717117 0.448676 0.957335 68 78 50
-0.662652 0.511099 0.952677 22 26 10
-0.670439 0.520421 0.926007 50 35 15
-0.856722 0.510383 0.953759 154 146 118
-0.839668 0.523242 0.946613 150 142 114
-0.840754 0.526493 0.937493 144 136 108
-0.569921 0.43326 1.0064 154 167 118
-0.601001 0.44498 0.984621 145 157 109
-0.676653 0.514072 0.944464 40 32 20
-0.773135 0.423121 1.00113 147 153 102
-0.697478 0.517139 0.912907 57 32 22
-0.593203 0.427897 1.00943 110 120 90
-0.700245 0.512294 0.928659 90 64 56
-0.672935 0.521485 0.939875 70 40 28
-0.728089 0.455745 0.959152 88 93 67
-0.843124 0.526779 0.937877 150 142 114
-0.829522 0.367674 1.0235 152 155 97
-0.601853 0.436293 0.983677 157 170 119
-0.668336 0.519078 0.928834 30 23 8
-0.912164 0.29718 1.05027 159 160 102
-0.902047 0.301343 1.0471 156 158 100
-0.904322 0.299644 1.04673 158 158 101
-0.891207 0.315681 1.0417 156 155 96
-0.920036 0.29058 1.04676 160 160 104
-0.601409 0.436023 0.985378 154 168 118
-0.903131 0.298677 1.04703 154 156 99
-0.892754 0.301916 1.05403 154 156 99
-0.890985 0.315642 1.04144 154 157 98
-0.911976 0.289223 1.05098 132 131 80
-0.87226 0.32444 1.04035 127 126 84
-0.813809 0.374149 1.03729 105 110 70
-0.780497 0.402528 1.03578 104 109 68
-0.831504 0.410973 1.09575 151 150 92
-0.8749 0.410852 1.19311 149 145 83
-0.620641 0.492168 0.990349 31 30 13
-0.631385 0.497639 0.986177 26 24 11
-0.666383 0.517532 0.933473 41 31 14
-0.709521 0.560741 0.943357 66 30 28
-0.674156 0.575999 0.968751 66 31 27
-0.793162 0.579146 1.12296 154 144 118
-0.803142 0.575346 1.09385 153 143 116
-0.648645 0.602035 1.00113 74 38 32
-0.731618 0.590396 0.951295 82 38 28
-0.798018 0.601932 1.05472 144 133 108
-0.708933 0.633124 0.991951 89 34 24
-0.720688 0.630834 0.981115 89 35 25
-0.707543 0.6762 1.02288 98 50 37
-0.738478 0.665166 0.999129 124 90 81
-0.915417 0.30014 1.04635 158 158 102
-0.9035 0.298315 1.04978 101 108 62
-0.766424 0.423124 1.01422 100 106 64
-0.624017 0.467479 0.942156 82 88 55
-0.616668 0.49425 0.984289 32 22 10
-0.648424 0.491488 0.945031 56 39 19
-0.650244 0.517248 0.949854 33 22 8
-0.80101 0.567985 1.11042 154 144 118
-0.808353 0.5712 1.09425 154 144 118
-0.673814 0.575615 0.968869 66 31 27
-0.804117 0.574655 1.10197 154 144 118
-0.688467 0.574056 0.957618 67 33 26
-0.702161 0.575679 0.958577 60 28 24
-0.686374 0.593153 0.969768 75 40 34
-0.778408 0.610717 1.13054 150 138 114
-0.69271 0.627987 0.984222 78 29 22
-0.784168 0.629639 1.07234 120 112 93
-0.704519 0.652702 1.00649 78 26 18
-0.710887 0.672561 1.02207 100 50 38
-0.729901 0.674217 1.03244 114 80 73
-0.730275 0.669727 1.00932 124 90 80
-0.706565 0.679391 1.02331 122 80 65
-0.895209 0.325992 1.03971 156 155 98
-0.801453 0.383433 1.03898 108 111 70
-0.823427 0.418832 0.999926 144 148 94
-0.635678 0.474526 0.946286 56 51 30
-0.637945 0.474421 0.939482 88 80 54
-0.661868 0.510034 0.952731 24 18 8
-0.702195 0.510284 0.933083 28 26 13
-0.67899 0.513554 0.944728 28 23 11
-0.661554 0.515343 0.939396 34 23 10
-0.826763 0.534391 1.06401 156 148 120
-0.798123 0.578586 1.10543 153 143 116
-0.788644 0.599637 1.1221 151 140 116
-0.777801 0.61109 1.12751 150 138 114
-0.774068 0.615799 1.13641 150 138 114
-0.729734 0.603305 0.957776 78 34 26
-0.767422 0.636301 1.13876 151 139 120
-0.78333 0.628307 1.07873 105 102 79
-0.783453 0.629419 1.07423 112 108 87
-0.722918 0.625769 0.975437 86 32 22
-0.693645 0.654118 1.00759 75 28 22
-0.719765 0.643746 0.983596 76 25 20
-0.70595 0.653926 1.00526 76 24 19
-0.715211 0.673433 1.02349 104 62 55
-0.739685 0.670695 1.01281 129 99 90
-0.855921 0.373555 1.01796 151 152 94
-0.863916 0.402756 1.16748 150 146 84
-0.797774 0.417983 1.00739 106 110 66
-0.830727 0.410985 1.09738 151 150 92
-0.829366 0.427253 1.09473 146 142 86
-0.618155 0.468886 0.947227 86 92 59
-0.630508 0.470518 0.943391 63 61 36
-0.778816 0.468851 1.07928 138 130 86
-0.642577 0.50009 0.945583 46 26 15
-0.649697 0.504749 0.94823 26 10 6
-0.668944 0.513542 0.933309 34 23 10
-0.815358 0.537203 1.09452 157 148 121
-0.695397 0.557539 0.940802 70 32 26
-0.788645 0.582232 1.12015 153 143 116
-0.771344 0.61752 1.14123 150 138 114
-0.798301 0.602359 1.05397 144 132 108
-0.731662 0.599548 0.957739 76 33 26
-0.764093 0.64297 1.13875 150 138 122
-0.768704 0.637708 1.10623 108 104 80
-0.780243 0.632782 1.08363 103 104 82
-0.731061 0.676436 1.02514 127 96 87
-0.850178 0.386533 1.00825 153 155 100
-0.828665 0.389088 1.01438 104 106 66
-0.829109 0.431962 1.08851 148 146 86
-0.623333 0.455853 0.940491 98 104 66
-0.782149 0.47752 1.04715 51 54 37
-0.623585 0.499625 0.993103 21 17 6
-0.691296 0.508278 0.961021 29 28 15
-0.674891 0.515338 0.949114 27 22 12
-0.685467 0.514574 0.937935 31 26 14
-0.66376 0.52054 0.937184 44 32 16
-0.813572 0.537264 1.09808 157 148 121
-0.815135 0.540337 1.08228 156 148 119
-0.787427 0.607959 1.07344 145 133 109
-0.779263 0.630277 1.11562 150 138 120
-0.782271 0.628978 1.07072 136 124 106
-0.70993 0.630036 0.989971 84 29 20
-0.719113 0.64951 0.999873 91 50 43
-0.67035 0.493952 0.934842 38 23 12
-0.632823 0.501814 0.95392 41 22 12
-0.690189 0.514702 0.930012 24 20 9
-0.675137 0.516475 0.930106 32 24 10
-0.809048 0.520461 1.07833 157 150 124
-0.813506 0.550388 1.09347 154 147 120
-0.780161 0.632755 1.11799 150 138 120
-0.705067 0.65209 1.00604 78 26 18
-0.696925 0.655469 1.00846 76 26 18
-0.709315 0.675846 1.02017 105 56 42
-0.669005 0.519224 0.928044 68 52 30
-0.795666 0.555892 1.11851 154 146 118
-0.794157 0.569261 1.13445 155 145 119
-0.650722 0.638904 1.01762 86 46 40
-0.668193 0.636595 1.00754 80 30 24
-0.722887 0.622761 0.973848 84 30 20
-0.728774 0.625972 0.982119 80 25 16
-0.894113 0.412947 1.13657 150 146 84
-0.648999 0.475732 0.934824 84 77 54
-0.645968 0.498944 0.940437 44 25 14
-0.814963 0.549996 1.09188 156 148 122
-0.660293 0.56361 0.995719 70 34 30
-0.802562 0.563148 1.11597 156 146 120
-0.712323 0.592028 0.964985 74 38 30
-0.721812 0.602295 0.966771 74 32 25
-0.76193 0.645064 1.14125 150 137 122
-0.800452 0.431498 1.07802 98 98 54
-0.79788 0.432436 1.07896 100 96 54
-0.723628 0.529129 0.929904 88 56 38
-0.713978 0.53384 0.918712 76 55 43
-0.762518 0.531586 0.947481 88 76 48
-0.723686 0.536488 0.929686 123 80 60
-0.810729 0.423501 1.08636 110 108 62
-0.825388 0.509155 1.02447 142 117 94
-0.724541 0.52868 0.928845 86 55 36
-0.723055 0.530864 0.934595 98 58 38
-0.696245 0.594151 0.869768 131 108 96
-0.696409 0.596837 0.870473 116 95 86
-0.83054 0.410481 1.09818 151 150 91
-0.814912 0.424218 1.07468 114 114 66
-0.834791 0.423959 1.09673 128 126 72
-0.835922 0.426015 1.08848 140 138 80
-0.664478 0.522068 0.935476 72 42 24
-0.83035 0.508537 1.02179 150 132 107
-0.716579 0.532088 0.921111 102 77 63
-0.821648 0.527466 0.992259 112 88 68
-0.698208 0.595834 0.868384 116 94 86
-0.694975 0.599199 0.866245 103 75 60
-0.865118 0.399342 1.11598 148 146 88
-0.816418 0.42405 1.07142 108 108 61
-0.837927 0.424723 1.09276 130 128 72
-0.621744 0.457403 0.941354 95 98 60
-0.72734 0.530572 0.937976 127 80 53
-0.72014 0.551118 0.933705 66 32 27
-0.694779 0.596938 0.865804 117 90 74
-0.822118 0.508152 1.02502 132 108 80
-0.694981 0.595697 0.85293 153 144 136
-0.612176 0.438225 0.967512 154 167 116
-0.619816 0.457106 0.94474 94 94 58
-0.826156 0.511277 1.01671 145 121 90
-0.73004 0.530581 0.937685 120 72 46
-0.866138 0.399787 1.11931 150 148 88
-0.706108 0.456072 0.995935 77 84 54
-0.693504 0.597549 0.872931 110 89 80
-0.696588 0.59514 0.863867 120 93 78
-0.597717 0.431272 0.977135 154 166 116
-0.841071 0.42327 1.08822 118 114 62
-0.618854 0.446767 0.965404 150 164 116
-0.740813 0.530362 0.935935 107 62 42
-0.786756 0.580508 1.00262 116 100 62
-0.707752 0.67328 1.01621 89 46 34
-0.714581 0.676413 1.02 122 92 56
-0.876652 0.320054 1.04734 78 78 54
-0.908137 0.305767 1.04564 159 158 102
-0.819989 0.386427 1.02998 101 100 58
-0.914334 0.299725 1.04709 129 102 64
-0.671295 0.40668 0.950718 68 72 52
-0.776347 0.401654 1.04298 156 158 104
-0.686271 0.416767 0.950382 111 114 83
-0.871511 0.401232 1.10052 149 146 84
-0.859281 0.402519 1.09673 150 146 86
-0.848003 0.406818 1.08792 150 148 88
-0.822023 0.417973 1.08018 115 109 58
-0.82051 0.419548 1.07954 133 130 72
-0.811175 0.424737 1.0773 148 146 85
-0.833974 0.439505 1.06893 146 142 78
-0.835666 0.444042 1.06774 144 141 76
-0.71515 0.456346 0.992766 72 82 36
-0.800989 0.456691 1.10227 146 142 79
-0.709462 0.467132 1.0131 64 72 26
-0.797413 0.462848 1.09693 144 142 78
-0.710905 0.475895 1.01601 62 71 28
-0.721225 0.486223 1.02064 34 38 14
-0.652463 0.520484 0.947136 35 27 11
-0.660027 0.522253 0.939456 52 36 16
-0.656965 0.522224 0.94056 34 27 12
-0.714707 0.567202 0.957004 67 27 20
-0.805169 0.57297 1.09156 155 144 120
-0.711285 0.605576 0.976979 72 24 14
-0.734363 0.643523 1.00915 101 64 56
-0.739493 0.642527 1.00858 102 68 58
-0.758046 0.652046 1.04523 146 132 125
-0.705685 0.677436 1.02734 134 106 100
-0.729027 0.677243 1.02779 145 128 127
-0.798608 0.38285 1.04471 153 155 99
-0.739476 0.405177 1.01442 94 100 60
-0.860087 0.402445 1.0946 150 146 86
-0.762268 0.413425 1.04038 154 158 102
-0.896696 0.415317 1.11467 150 146 83
-0.810688 0.426094 1.07447 148 146 86
-0.842093 0.428716 1.08549 148 144 82
-0.799925 0.43231 1.07374 148 145 84
-0.78702 0.441605 1.07266 149 147 90
-0.820009 0.445232 1.08544 146 142 78
-0.721115 0.456427 0.984987 72 81 36
-0.708506 0.467259 1.01418 64 72 26
-0.798334 0.462857 1.09435 145 142 79
-0.712478 0.478107 1.01475 62 71 28
-0.649992 0.498319 0.954877 28 28 13
-0.686115 0.514286 0.948207 49 40 30
-0.812336 0.548903 1.09616 154 146 120
-0.712174 0.555 0.958141 60 24 20
-0.807576 0.568712 1.09627 156 146 122
-0.708342 0.569386 0.965696 67 28 20
-0.70456 0.597566 0.978477 86 42 30
-0.709684 0.611704 0.981755 88 33 21
-0.706566 0.61376 0.983008 84 31 19
-0.728348 0.619409 0.996137 87 31 16
-0.73497 0.62508 1.00825 74 24 13
-0.707136 0.63003 0.993033 87 31 19
-0.732105 0.644499 1.01289 102 65 56
-0.736251 0.643543 1.00964 100 64 56
-0.772049 0.654329 1.08307 155 142 134
-0.798806 0.382947 1.04443 153 155 99
-0.777511 0.401333 1.04058 155 158 103
-0.76548 0.421142 1.01809 147 151 100
-0.773344 0.44705 1.01842 90 92 56
-0.708751 0.467078 1.01379 64 72 26
-0.721199 0.47681 1.02043 46 52 26
-0.712219 0.478346 1.01593 62 72 28
-0.721288 0.486935 1.02149 34 37 14
-0.720885 0.49461 1.00657 60 70 31
-0.673542 0.51453 0.947168 25 22 11
-0.658266 0.524153 0.942445 52 36 16
-0.822813 0.519773 1.07676 158 150 121
-0.821306 0.53701 1.07698 158 148 120
-0.815897 0.539519 1.08062 156 148 120
-0.668428 0.565278 0.970065 63 26 22
-0.698453 0.565492 0.958684 64 26 20
-0.707487 0.569932 0.963975 66 26 18
-0.802273 0.577361 1.09111 154 144 120
-0.720693 0.576427 0.965807 69 28 17
-0.713516 0.580885 0.964462 78 38 28
-0.70963 0.599434 0.979877 78 31 20
-0.734637 0.66603 1.02205 140 120 118
-0.72551 0.670964 1.02784 142 120 118
-0.777349 0.401706 1.04188 155 158 103
-0.811829 0.42444 1.07515 148 147 86
-0.824767 0.442614 1.08583 146 142 76
-0.794917 0.452391 1.09368 146 144 81
-0.798887 0.453428 1.10429 147 143 80
-0.788162 0.464599 1.08158 127 125 78
-0.722931 0.477473 1.0126 47 54 26
-0.717048 0.494504 1.01261 60 70 29
-0.641982 0.500794 0.946563 20 14 8
-0.813753 0.511791 1.05827 157 149 120
-0.679656 0.527798 0.929026 91 70 51
-0.819608 0.538211 1.07993 157 148 120
-0.692169 0.553196 0.958426 66 31 28
-0.805479 0.569652 1.10199 156 146 122
-0.704769 0.570117 0.966784 66 27 20
-0.799942 0.578264 1.098 155 144 120
-0.718395 0.577845 0.968948 69 28 18
-0.708962 0.582462 0.970287 78 38 28
-0.707255 0.632416 0.993409 90 34 21
-0.772706 0.653185 1.0823 155 142 134
-0.738945 0.643187 1.0098 102 68 59
-0.779574 0.654194 1.04263 154 140 134
-0.730886 0.667478 1.02344 140 120 118
-0.869283 0.40049 1.10341 148 144 84
-0.840673 0.428659 1.08953 149 146 84
-0.638408 0.474433 0.939802 38 37 18
-0.789391 0.465215 1.08014 128 126 77
-0.725911 0.471648 1.0127 52 58 30
-0.788548 0.468092 1.0797 100 102 65
-0.802999 0.468746 1.08108 126 124 68
-0.709062 0.47842 1.02134 62 71 30
-0.726167 0.477585 1.00835 45 51 25
-0.813637 0.543925 1.0923 156 148 120
-0.708522 0.555912 0.955458 58 24 20
-0.801109 0.578372 1.09817 154 144 120
-0.706344 0.582905 0.973966 82 44 33
-0.79991 0.59444 1.10048 154 144 123
-0.791128 0.604816 1.10522 152 142 123
-0.70681 0.59693 0.974759 89 47 36
-0.745948 0.626327 0.999357 94 53 40
-0.73332 0.644864 1.01144 100 65 58
-0.773687 0.658004 1.07357 156 142 134
-0.690933 0.446769 0.994713 58 66 38
-0.821837 0.439674 1.09213 147 142 78
-0.777229 0.444151 1.04768 91 62 40
-0.793454 0.452887 1.09851 146 143 80
-0.803545 0.452995 1.09823 146 142 78
-0.713804 0.489823 1.02346 40 44 16
-0.708843 0.495436 1.02361 62 72 30
-0.807184 0.488095 1.05555 134 136 79
-0.672681 0.521417 0.94124 49 32 16
-0.711619 0.554319 0.956162 58 23 19
-0.802594 0.592049 1.09434 154 143 123
-0.772819 0.659688 1.07697 156 143 135
-0.773915 0.654319 1.04851 154 140 134
-0.735438 0.671626 1.03176 145 127 126
-0.745826 0.401691 1.00537 109 114 70
-0.811878 0.449193 1.10088 146 142 78
-0.640278 0.469258 0.933588 38 34 12
-0.805365 0.456801 1.09256 146 142 79
-0.796106 0.464198 1.09902 142 140 76
-0.638104 0.479655 0.940763 33 32 14
-0.808163 0.467871 1.09936 143 139 77
-0.801811 0.468805 1.09241 130 130 72
-0.820915 0.46776 1.08478 144 140 76
-0.718562 0.489534 1.01616 34 38 12
-0.797042 0.49277 1.10191 126 126 69
-0.814743 0.54335 1.0919 156 148 120
-0.679594 0.551602 0.952797 66 28 24
-0.706442 0.555695 0.956929 60 24 20
-0.807887 0.568371 1.09787 156 146 122
-0.801436 0.578143 1.09989 154 144 120
-0.737392 0.645051 1.01027 100 67 60
-0.776333 0.657302 1.07109 156 143 135
-0.729708 0.666292 1.01806 141 118 116
-0.767014 0.417298 1.01962 139 143 92
-0.900174 0.413791 1.11021 150 146 83
-0.694464 0.446605 0.990013 56 64 36
-0.705244 0.455953 0.996879 80 83 46
-0.817396 0.459287 1.0871 145 141 77
-0.665301 0.483975 0.939064 38 36 16
-0.813889 0.550195 1.09175 156 148 122
-0.803305 0.590624 1.09097 154 144 122
-0.703362 0.655727 1.00994 108 71 66
-0.741872 0.625003 0.99734 108 75 63
-0.902219 0.296186 1.05051 158 158 102
-0.869261 0.323179 1.04585 156 153 92
-0.743776 0.626632 0.998899 107 75 64
-0.738826 0.643642 1.01134 109 78 70
-0.832967 0.353332 1.04505 150 148 88
-0.678329 0.635747 1.0013 89 34 24
-0.740583 0.622763 1.00053 110 75 61
-0.703822 0.654892 1.00987 108 71 66
-0.598295 0.43224 0.977579 155 168 118
-0.920172 0.290487 1.04511 154 152 92
-0.654307 0.50954 0.952537 88 81 73
-0.902213 0.296279 1.05086 157 154 112
-0.901104 0.314484 1.04058 110 110 72
-0.713585 0.580807 0.964832 66 53 32
-0.703598 0.655781 1.00867 119 88 72
-0.716146 0.673656 1.02638 80 67 60
-0.722834 0.528261 0.937285 128 112 77
-0.708144 0.629901 0.991973 118 87 67
-0.747533 0.602852 0.985838 72 46 35
-0.714125 0.674574 1.02584 98 84 57
-0.738251 0.666256 1.02419 80 101 99
-0.658364 0.505745 0.958671 49 53 28
-0.607889 0.434365 0.966347 155 156 116
-0.815968 0.536673 1.09175 84 80 64
-0.894353 0.412844 1.13125 127 109 72
-0.646683 0.458582 1.01398 98 97 82
-0.809911 0.542725 1.10683 154 148 106
-0.686936 0.599072 0.877533 114 92 78
-0.882035 0.404903 1.11363 112 114 64
-0.84006 0.42324 1.09215 112 115 64
-0.737484 0.641969 1.00575 138 118 112
-0.703023 0.656364 1.01082 97 68 64
-0.716738 0.673026 1.02471 146 131 130
-0.707194 0.596828 0.978739 74 25 16
-0.713111 0.605643 0.977617 84 29 16
-0.747653 0.602885 0.982909 106 83 61
-0.903764 0.298103 1.05007 159 158 102
-0.892043 0.304514 1.04867 158 159 102
-0.818097 0.387895 1.02998 151 152 94
-0.685748 0.417226 0.951424 125 125 76
-0.788763 0.415494 1.02444 108 106 61
-0.61884 0.50406 0.977216 25 26 12
-0.653899 0.509179 0.951175 16 17 8
-0.902339 0.296259 1.05031 160 158 102
-0.742571 0.623597 0.994961 107 77 63
-0.709293 0.630209 0.989836 84 32 20
-0.759635 0.652514 1.04219 153 140 134
-0.725596 0.670501 1.02803 146 130 129
-0.734378 0.670989 1.03262 149 135 133
-0.714717 0.673423 1.02525 146 130 130
-0.901132 0.314411 1.0416 158 158 101
-0.705766 0.677301 1.02489 146 128 128
-0.904171 0.298291 1.04846 158 157 101
-0.892915 0.303801 1.05033 158 158 102
-0.83722 0.443463 1.064 145 141 75
-0.671101 0.512916 0.950582 34 16 8
-0.830712 0.507838 1.03243 158 150 121
-0.672392 0.656135 1.02303 113 86 52
-0.727682 0.669955 1.03501 147 139 109
-0.714176 0.673466 1.02463 147 138 108
-0.911734 0.288705 1.05097 158 158 100
-0.716597 0.672375 1.02565 146 136 106
-0.705305 0.6777 1.02956 100 93 78
-0.674608 0.656169 1.02168 102 74 40
-0.699502 0.676625 1.03457 88 80 72
-0.704997 0.677694 1.02925 145 134 102
-0.704257 0.678332 1.02889 92 83 76
-0.895015 0.307445 1.04474 150 148 96
-0.607322 0.437338 0.975872 90 104 66
-0.731899 0.613845 0.981218 114 86 50
-0.737051 0.645749 1.00988 149 133 124
-0.816092 0.535651 1.00722 154 144 118
-0.755343 0.36796 0.949745 139 145 93
-0.7075 0.535919 0.933649 138 122 89
-0.754079 0.65355 1.05547 108 102 80
-0.869337 0.323555 1.04573 108 110 70
-0.667447 0.394257 0.92586 47 54 31
-0.64802 0.5025 0.947109 86 82 65
-0.697851 0.509117 0.971746 91 82 62
-0.663652 0.514049 0.948715 108 84 64
-0.671536 0.528507 0.937199 103 63 54
-0.770942 0.626325 1.02602 156 144 138
-0.768466 0.63124 1.03117 154 141 134
-0.668166 0.656098 1.02539 63 49 24
-0.73551 0.642173 1.0064 148 140 108
-0.671693 0.655441 1.02321 104 88 58
-0.758105 0.651018 1.03883 157 150 120
-0.678449 0.665698 1.02716 142 126 92
-0.679885 0.668538 1.02585 100 88 74
-0.731294 0.665532 1.02168 124 114 102
-0.727354 0.67236 1.02689 150 142 112
-0.902991 0.301778 1.0459 155 156 99
-0.806623 0.399471 1.02726 94 95 57
-0.680572 0.409446 0.940898 96 96 54
-0.722944 0.470596 1.0162 84 59 43
-0.751018 0.484634 0.996067 105 92 72
-0.85183 0.490235 1.03605 139 132 97
-0.674915 0.517552 0.945642 66 26 16
-0.677418 0.518091 0.947616 66 26 18
-0.672858 0.519835 0.944606 86 44 31
-0.671586 0.528523 0.938003 110 95 66
-0.671995 0.610785 0.991336 116 91 58
-0.777028 0.605171 1.01625 156 143 132
-0.67209 0.631796 1.00467 127 97 62
-0.672397 0.633989 1.01051 124 100 66
-0.671787 0.635094 1.00732 128 98 63
-0.75795 0.651507 1.04015 154 148 118
-0.732709 0.667556 1.02553 151 144 114
-0.714251 0.672974 1.02397 102 96 80
-0.729316 0.672784 1.03127 155 150 122
-0.673722 0.519025 0.941735 120 100 80
-0.709997 0.611366 0.981161 118 92 60
-0.695678 0.428093 0.960438 110 90 50
-0.769015 0.629928 1.03095 96 92 77
-0.702527 0.674646 1.02648 94 88 78
-0.727443 0.675289 1.03714 134 112 106
-0.716799 0.675184 1.03171 94 90 79
-0.778064 0.401983 1.04186 144 142 86
-0.764193 0.430371 1.01811 93 86 64
-0.838965 0.436027 1.06645 110 101 55
-0.676479 0.516507 0.941981 116 94 86
-0.731199 0.670285 1.02525 155 144 128
-0.737195 0.676593 1.03866 98 94 81
-0.880511 0.314983 1.04463 102 108 60
-0.669815 0.514453 0.949342 100 74 66
-0.662855 0.514106 0.95097 112 86 77
-0.674935 0.519809 0.933715 92 72 58
-0.673617 0.63143 1.00485 106 54 34
-0.734923 0.490705 1.01432 58 58 30
-0.908831 0.306511 1.04249 158 161 104
-0.785807 0.418398 1.02424 128 127 74
-0.672443 0.631691 1.00319 76 30 19
-0.91955 0.290729 1.0457 116 96 66
-0.749716 0.471527 1.02087 110 102 60
-0.737385 0.650349 1.01294 108 79 72
-0.671419 0.635108 1.00969 66 33 19
-0.736189 0.646537 1.01058 97 96 82
-0.845448 0.457986 1.04429 94 96 47
-0.843892 0.465216 1.02777 148 144 83
-0.662422 0.637658 1.02047 93 46 30
-0.701076 0.449049 0.98843 73 68 32
-0.68626 0.667757 1.02075 138 117 113
-0.706447 0.673454 1.02329 148 147 122
-0.667582 0.633259 1.00689 111 64 42
-0.620138 0.502383 0.978528 60 62 32
-0.679273 0.635543 1.00578 81 44 30
-0.607308 0.429396 0.990982 63 42 26
-0.726649 0.472684 1.01298 56 25 19
-0.664087 0.513357 0.947564 107 86 59
-0.583508 0.325896 0.862928 156 154 122
-0.657896 0.655263 1.02915 58 31 18
-0.679859 0.665971 1.02573 136 118 96
-0.679004 0.668159 1.02647 87 64 56
-0.602962 0.436816 0.980987 110 94 65
-0.895479 0.306206 1.03956 150 156 106
-0.775708 0.606472 1.01969 151 143 104
-0.676255 0.634027 1.00602 60 32 18
-0.590726 0.413906 0.969616 98 87 68
-0.724879 0.486242 1.0153 82 74 43
-0.742791 0.475563 1.0057 122 91 98
-0.888621 0.330345 1.03704 158 128 126
-0.587264 0.335655 0.860589 158 161 106
-0.601964 0.337081 0.886127 92 91 55
-0.75972 0.367222 1.03985 150 151 92
-0.671346 0.400486 0.936422 86 89 54
-0.756794 0.397369 1.01757 126 126 91
-0.68105 0.409682 0.940086 131 126 74
-0.60089 0.33715 0.884791 108 105 63
-0.759387 0.368657 1.0387 158 162 104
-0.766627 0.41946 1.01509 50 51 24
-0.689136 0.523208 0.933694 148 118 94
-0.669223 0.635823 1.00728 124 93 74
-0.585269 0.334434 0.862735 154 155 98
-0.650575 0.486164 0.945386 92 87 64
-0.789158 0.392 1.04204 88 82 49
-0.778178 0.402242 1.04069 88 92 56
-0.83044 0.410488 1.09983 104 86 50
-0.792456 0.440409 1.05664 146 141 78
-0.790675 0.56883 1.00076 149 142 98
-0.67504 0.632224 1.00018 82 56 42
-0.736742 0.650784 1.0171 96 94 84
-0.679799 0.667435 1.02493 110 68 60
-0.838694 0.423966 1.09569 112 116 76
-0.689326 0.522285 0.934062 136 110 71
-0.710001 0.607864 0.981175 121 92 55
-0.769325 0.629151 1.03193 110 86 75
-0.664505 0.39298 0.932314 97 98 72
-0.800069 0.382782 1.0441 148 144 100
-0.673432 0.400995 0.935549 136 129 99
-0.788723 0.391275 1.0482 152 148 106
-0.687754 0.418339 0.950335 128 122 82
-0.831065 0.430919 1.11595 100 104 54
-0.672597 0.51801 0.946711 84 40 25
-0.750222 0.398329 0.990216 104 84 53
-0.770193 0.414389 1.0148 41 63 52
-0.685226 0.522169 0.943527 86 126 109
-0.709743 0.648602 0.99669 133 136 130
-0.585421 0.326856 0.857137 158 158 102
-0.593118 0.334665 0.863196 69 75 25
-0.586128 0.335382 0.862708 100 106 56
-0.624657 0.358254 0.890825 86 88 59
-0.787467 0.436139 0.976122 120 124 72
-0.749833 0.507116 0.969894 153 156 118
-0.670532 0.520994 0.943328 96 97 50
-0.774801 0.521446 0.966241 38 24 14
-0.67574 0.531135 0.934906 42 42 20
-0.67494 0.531114 0.93164 92 92 50
-0.720829 0.529595 0.934526 104 104 72
-0.669002 0.534399 0.941944 68 42 30
-0.757065 0.563731 0.959776 57 23 16
-0.728376 0.573447 0.952285 154 145 125
-0.716184 0.577336 0.955611 114 89 77
-0.715096 0.580738 0.96066 86 38 22
-0.713087 0.593421 0.968053 130 101 82
-0.710824 0.611655 0.97903 152 142 125
-0.670713 0.631855 1.00742 108 104 89
-0.73531 0.642384 1.00665 116 94 61
-0.671731 0.654042 1.02067 140 119 79
-0.716091 0.676825 1.03388 156 156 113
-0.751511 0.484399 0.993123 50 54 28
-0.852801 0.48454 1.03709 102 86 51
-0.661106 0.512061 0.956945 156 150 110
-0.663865 0.512092 0.944183 63 36 20
-0.75517 0.510988 0.945556 142 135 104
-0.673855 0.521831 0.943778 152 146 106
-0.774933 0.521199 0.968386 106 90 72
-0.671402 0.528328 0.937341 134 120 98
-0.675738 0.531414 0.936183 108 107 64
-0.720036 0.529432 0.937535 62 48 30
-0.671869 0.531371 0.939496 132 128 98
-0.670703 0.534018 0.944594 110 108 85
-0.720185 0.554897 0.946057 158 148 128
-0.791975 0.567246 0.99893 152 142 122
-0.804058 0.568684 1.00831 94 89 78
-0.728408 0.573241 0.9528 84 72 57
-0.754063 0.576317 0.968383 110 84 78
-0.715784 0.577912 0.958007 88 82 72
-0.751125 0.590313 0.974764 85 80 74
-0.779953 0.603828 1.01491 156 148 132
-0.711383 0.605594 0.976151 144 146 92
-0.731479 0.613946 0.982328 158 154 112
-0.737386 0.642372 1.0066 98 90 53
-0.930199 0.272634 1.05367 112 91 58
-0.593776 0.334459 0.861266 149 143 99
-0.589666 0.333717 0.861404 94 68 46
-0.593913 0.334443 0.864874 110 86 49
-0.588494 0.33596 0.85865 119 88 51
-0.593247 0.334273 0.870029 112 93 58
-0.601429 0.337219 0.887069 116 116 98
-0.630772 0.360647 0.904641 112 90 54
-0.792395 0.441615 0.999115 134 140 89
-0.772521 0.481358 0.986568 70 82 50
-0.749472 0.506784 0.967646 110 87 53
-0.674397 0.517545 0.946512 156 150 115
-0.677749 0.518277 0.947641 116 101 69
-0.774838 0.520858 0.970979 148 142 98
-0.674474 0.521651 0.942991 73 56 34
-0.677156 0.532295 0.92945 72 28 20
-0.756992 0.561901 0.961344 98 92 78
-0.792636 0.56669 0.99401 92 91 52
-0.754442 0.575916 0.96554 95 97 60
-0.777172 0.604489 1.01191 95 98 62
-0.778568 0.607361 1.0154 146 144 106
-0.743241 0.620081 0.993069 136 134 76
-0.742277 0.624191 0.995697 105 104 74
-0.744423 0.626042 0.996408 101 104 55
-0.671215 0.63539 1.00881 93 92 54
-0.738832 0.649431 1.01241 93 94 70
-0.723298 0.673555 1.03152 44 40 19
-0.727587 0.673154 1.02873 44 52 33
-0.713483 0.67864 1.02541 118 117 80
-0.930299 0.273438 1.05008 47 44 20
-0.840647 0.485061 1.03612 157 146 124
-0.703611 0.507408 0.940899 139 139 100
-0.701017 0.512638 0.93393 156 152 118
-0.674103 0.518577 0.941575 154 150 118
-0.675643 0.521465 0.94232 114 109 102
-0.671057 0.53115 0.936054 148 137 106
-0.715198 0.579182 0.960137 108 100 62
-0.747777 0.602633 0.982961 110 112 74
-0.745821 0.62542 0.993893 144 140 78
-0.733725 0.669793 1.02998 78 65 48
-0.700719 0.512458 0.934905 160 150 140
-0.674188 0.517516 0.947768 136 116 112
-0.661553 0.532258 0.956992 150 146 105
-0.679987 0.531774 0.929212 108 112 68
-0.722835 0.553575 0.942835 152 156 99
-0.754211 0.575953 0.970133 47 51 29
-0.751299 0.589789 0.976364 74 78 42
-0.742895 0.6231 0.995123 149 149 90
-0.674227 0.631589 1.00036 111 125 82
-0.844012 0.466365 1.01791 78 32 21
-0.85415 0.484985 1.0324 92 88 64
-0.66118 0.51008 0.955129 116 91 81
-0.670445 0.519708 0.94398 147 124 84
-0.777492 0.519859 0.966239 114 94 61
-0.68201 0.532292 0.92792 142 140 86
-0.75772 0.562111 0.957874 114 92 56
-0.754828 0.575699 0.968826 108 82 44
-0.752436 0.590359 0.977128 112 90 55
-0.743937 0.622062 0.994699 92 89 74
-0.750559 0.365486 0.954696 106 84 66
-0.800527 0.445603 0.969975 98 64 39
-0.715499 0.553163 0.941684 114 90 51
-0.758359 0.561627 0.958407 36 34 22
-0.791292 0.577985 1.00263 50 22 12
-0.751833 0.590529 0.978831 158 149 121
-0.779381 0.606546 1.01772 72 38 29
-0.788182 0.624682 1.04144 84 42 32
-0.66632 0.646446 0.999952 157 126 98
-0.687177 0.668908 1.02415 119 90 70
-0.705568 0.67621 1.02536 158 150 129
-0.769509 0.458242 0.998917 136 76 50
-0.664562 0.513218 0.962052 120 122 80
-0.77983 0.517637 0.965839 156 160 101
-0.707206 0.630727 0.99768 111 118 66
-0.760214 0.529847 0.943428 58 64 30
-0.716723 0.566244 0.952138 142 130 114
-0.754138 0.576674 0.968149 156 144 137
-0.673849 0.654861 1.02131 119 122 72
-0.760801 0.529802 0.942986 118 87 72
-0.764289 0.537624 0.946154 146 135 119
-0.759956 0.549864 0.951828 158 156 120
-0.757595 0.560916 0.957914 148 141 104
-0.757155 0.563131 0.959949 67 42 21
-0.656394 0.662062 1.03958 146 144 80
-0.737787 0.675583 1.03605 151 150 92
-0.777984 0.537203 0.945852 145 140 112
-0.760122 0.549883 0.952416 150 144 111
-0.736043 0.64701 1.01236 133 128 89
-0.671605 0.528489 0.936476 118 122 69
-0.764405 0.538009 0.946641 149 148 92
-0.658252 0.662142 1.03705 132 120 79
-0.679946 0.668698 1.025 99 79 42
-0.77646 0.537794 0.948165 118 92 54
-0.676889 0.670045 1.03319 86 90 89
-0.758508 0.561362 0.959249 100 145 112
-0.723773 0.536206 0.929623 124 98 80
-0.930446 0.273229 1.05029 139 134 95
-0.606957 0.431755 0.990852 55 42 20
-0.607364 0.430178 0.993508 143 138 100
-0.751214 0.47158 1.01547 152 145 106
-0.751653 0.471486 1.01461 72 48 30
-0.740923 0.475622 1.01197 155 146 127
-0.737132 0.645437 1.00854 104 105 86
-0.69512 0.673678 1.02837 108 90 78
-0.798741 0.550975 0.986496 86 63 50
-0.790768 0.549286 0.971161 79 129 97
-0.718577 0.551527 0.943011 78 74 123
-0.717934 0.553107 0.944853 36 14 10
-0.716185 0.554846 0.945446 28 14 8
-0.758099 0.560742 0.956179 82 64 33
-0.656808 0.654708 1.02798 120 112 175
-0.667202 0.65646 1.02789 80 79 79
-0.674442 0.657156 1.02043 64 70 12
-0.724199 0.528163 0.930847 124 121 106
-0.723379 0.535842 0.930762 34 9 6
-0.761407 0.515882 0.9327 80 76 66
-0.724644 0.527814 0.926302 83 78 74
-0.76036 0.537184 0.943388 68 58 56
-0.657282 0.66093 1.03642 75 73 69
-0.724618 0.528195 0.924524 113 155 66
-0.668964 0.634607 1.00692 160 162 154
-0.685412 0.66618 1.01897 72 64 62
-0.678942 0.668576 1.02663 154 139 61
-0.70893 0.594267 0.969559 38 41 58
-0.69681 0.521723 0.921501 98 84 68
-0.691707 0.524886 0.932916 140 117 96
-0.721498 0.529034 0.9382 82 62 48
-0.720632 0.529666 0.931438 158 152 129
-0.693082 0.529938 0.91528 139 112 87
-0.718771 0.5316 0.923433 93 53 34
-0.801548 0.549992 0.982924 70 36 22
-0.803477 0.569793 1.01201 99 72 56
-0.755417 0.574409 0.96366 157 146 130
-0.780396 0.603182 1.01159 120 107 88
-0.670821 0.636444 1.0098 157 152 120
-0.708486 0.627999 0.988764 158 152 121
-0.71502 0.675003 1.02624 153 154 100
-0.841515 0.472802 0.953405 80 62 45
-0.698343 0.521618 0.918186 134 113 100
-0.691465 0.524368 0.933646 106 104 73
-0.721727 0.528936 0.926634 152 144 116
-0.696271 0.528778 0.907968 76 42 27
-0.791273 0.548453 0.968208 114 99 82
-0.799767 0.552206 0.992432 113 102 78
-0.795465 0.569235 1.00122 129 105 92
-0.780724 0.596286 1.01224 156 150 119
-0.743838 0.619179 0.991296 158 160 102
-0.738268 0.649177 1.01034 122 127 73
-0.732473 0.671251 1.03143 154 153 95
-0.752047 0.510394 0.956005 114 88 73
-0.769712 0.520227 0.928044 158 149 130
-0.697617 0.525988 0.910577 146 122 94
-0.719652 0.529395 0.932629 124 100 82
-0.69049 0.530567 0.923841 158 146 136
-0.776717 0.53688 0.941971 158 146 134
-0.8025 0.542091 0.980974 152 140 132
-0.790458 0.549013 0.971136 151 138 126
-0.789663 0.563724 0.982084 158 147 139
-0.796193 0.568411 0.998835 158 156 120
-0.791371 0.570047 1.00029 162 157 123
-0.731204 0.614191 0.983068 106 107 64
-0.671767 0.631305 1.00435 120 120 66
-0.678197 0.519519 0.923335 152 139 132
-0.724139 0.528754 0.933394 157 152 118
-0.696718 0.528725 0.906508 148 150 94
-0.68083 0.531865 0.92501 110 117 65
-0.67879 0.531702 0.920003 116 116 72
-0.717307 0.534322 0.919311 110 108 85
-0.716239 0.536518 0.918923 153 156 96
-0.799769 0.551549 0.995175 154 158 103
-0.795902 0.569027 1.00358 134 136 84
-0.716764 0.566446 0.95309 154 154 96
-0.672822 0.63293 1.00407 86 86 44
-0.669018 0.634868 1.00663 104 106 54
-0.740065 0.647801 1.00805 62 64 48
-0.696766 0.522559 0.922062 120 120 80
-0.697058 0.526711 0.911121 112 120 68
-0.722137 0.528756 0.929818 152 155 98
-0.718512 0.531118 0.927664 109 114 63
-0.723232 0.536788 0.933461 105 107 68
-0.800384 0.551463 0.993723 106 110 67
-0.71459 0.569703 0.969755 66 66 34
-0.727943 0.66971 1.02335 163 153 134
-0.698548 0.52192 0.915653 110 113 62
-0.721915 0.528461 0.932449 152 151 92
-0.71958 0.530798 0.92432 126 122 80
-0.722735 0.536712 0.935732 82 77 44
-0.717079 0.536118 0.918786 106 102 74
-0.790886 0.54947 0.974659 86 82 48
-0.724484 0.553724 0.940369 111 110 91
-0.724034 0.566725 0.945232 91 94 50
-0.770661 0.519115 0.9442 102 106 65
-0.694116 0.52812 0.916168 99 101 52
-0.684068 0.531954 0.925545 153 124 94
-0.724266 0.529927 0.91328 68 48 54
-0.777059 0.537261 0.943523 56 68 26
-0.785985 0.583116 1.0009 137 130 92
-0.696582 0.521048 0.91804 156 126 124
-0.786419 0.581056 0.9965 159 134 122
-0.750706 0.590472 0.981683 160 134 119
-0.779064 0.605376 1.02074 106 90 53
-0.78995 0.563761 0.981949 156 144 130
-0.832402 0.494969 1.04983 128 102 74
-0.747638 0.511771 0.98141 162 156 123
-0.929853 0.273546 1.05016 157 157 100
-0.661049 0.512269 0.957957 135 110 80
-0.663345 0.514399 0.957788 99 106 64
-0.653449 0.522509 0.945036 102 82 52
-0.660639 0.530602 0.949977 94 74 43
-0.671196 0.533229 0.936639 104 106 78
-0.670668 0.549645 0.955144 138 126 104
-0.712679 0.595052 0.969941 156 156 114
-0.743814 0.626238 0.995833 155 154 112
-0.740197 0.627157 0.99676 150 149 110
-0.656256 0.655147 1.02975 106 88 56
-0.652462 0.656592 1.03511 76 62 35
-0.671894 0.653245 1.0185 150 142 98
-0.67384 0.654646 1.02049 150 146 105
-0.679749 0.668242 1.02512 110 108 74
-0.724634 0.671757 1.02499 150 146 104
-0.69741 0.673542 1.02803 148 142 100
-0.846109 0.457258 1.04804 83 79 48
-0.653401 0.522871 0.94661 134 126 92
-0.669197 0.534358 0.943741 108 112 70
-0.671248 0.535814 0.942083 148 142 110
-0.668532 0.5495 0.956601 142 144 90
-0.743195 0.619942 0.993673 115 104 78
-0.739929 0.627098 0.998131 104 104 82
-0.655919 0.653797 1.0264 68 52 32
-0.668979 0.655234 1.02254 117 118 80
-0.703138 0.655883 1.01043 82 62 42
-0.69818 0.674265 1.02944 141 116 70
-0.654479 0.522798 0.943769 153 154 99
-0.673124 0.532401 0.9424 114 109 72
-0.775592 0.537183 0.94373 140 125 82
-0.66827 0.548996 0.955525 98 98 57
-0.713096 0.593816 0.967422 126 111 70
-0.736229 0.643759 1.0104 66 64 54
-0.735049 0.643057 1.00778 41 23 19
-0.653189 0.656411 1.03607 48 32 23
-0.730662 0.66683 1.02473 148 144 100
-0.753359 0.507439 0.957589 124 118 90
-0.701683 0.50738 0.945461 122 95 60
-0.673124 0.516117 0.943741 110 119 66
-0.677873 0.518352 0.948268 158 160 104
-0.739114 0.626855 0.996895 69 65 39
-0.929957 0.27392 1.04831 144 139 94
-0.663935 0.514078 0.959242 114 92 56
-0.653225 0.513792 0.95128 102 104 56
-0.679191 0.518454 0.947499 88 64 51
-0.661689 0.531437 0.949175 108 88 76
-0.671554 0.547215 0.951373 158 155 112
-0.671539 0.657238 1.02366 88 74 48
-0.671593 0.532831 0.943127 124 150 137
-0.771254 0.577151 0.98022 116 101 68
-0.727855 0.66932 1.02079 70 92 92
-0.742517 0.648832 1.01454 68 80 79
-0.661699 0.512834 0.948468 104 104 80
-0.902308 0.296414 1.04934 110 96 78
-0.652814 0.525851 0.945313 146 142 78
-0.670713 0.549231 0.955752 148 142 101
-0.655049 0.524687 0.94286 106 100 86
-0.653857 0.527822 0.946712 116 111 93
-0.725597 0.66891 1.01629 108 85 49
-0.846251 0.457047 1.04915 83 76 62
-0.846262 0.456817 1.04604 156 158 122
-0.734911 0.676627 1.03041 151 146 101
-0.759409 0.530569 0.946449 35 22 5
-0.679141 0.665819 1.02506 68 31 24
-0.761551 0.530042 0.946039 79 82 54
-0.759599 0.529828 0.942739 92 89 46
-0.759851 0.549919 0.952061 40 33 20
-0.75755 0.560948 0.958533 40 38 20
-0.680642 0.668507 1.0239 113 88 70
-0.763648 0.538142 0.949119 52 40 20
-0.759911 0.549959 0.95043 145 140 76
-0.754289 0.575592 0.96494 113 103 74
-0.739741 0.626361 0.99611 142 116 90
-0.71581 0.675554 1.02855 87 58 42
-0.761298 0.530051 0.945491 158 162 104
-0.751457 0.589139 0.971433 138 117 68
-0.77597 0.537954 0.94719 127 110 84
-0.669342 0.633987 1.0066 109 109 66
-0.661162 0.662717 1.03521 118 118 84
-0.679716 0.667351 1.02393 146 152 95
-0.684871 0.669999 1.02754 101 106 62
-0.659918 0.535736 0.969977 158 153 112
-0.761224 0.520749 0.946503 109 94 72
-0.758148 0.56131 0.962096 153 155 126
-0.654187 0.498745 0.949885 84 76 56
-0.636972 0.582523 1.00656 78 76 44
-0.652346 0.655514 1.0347 40 44 24
-0.657567 0.661578 1.03685 115 96 72
-0.647459 0.502666 0.949279 78 82 49
-0.747198 0.603553 0.986553 38 127 2
-0.7766 0.520299 0.962333 76 207 182
-0.792385 0.536571 0.956059 132 82 161
-0.710773 0.610647 0.97923 72 70 66
-0.697316 0.517118 0.930081 42 18 12
-0.7152 0.579369 0.963601 160 16 14
-0.672775 0.632483 1.00509 72 64 58
-0.722779 0.555494 0.952449 9 9 4
-0.709328 0.594383 0.966434 17 8 37
-0.634149 0.36205 0.897749 108 107 68
-0.833414 0.355443 1.03687 154 157 101
-0.764249 0.36092 1.0377 106 108 67
-0.821545 0.365243 1.0391 113 122 70
-0.810282 0.374541 1.04047 108 115 66
-0.671539 0.400317 0.939391 154 153 95
-0.830627 0.410233 1.10205 150 148 87
-0.693946 0.414204 0.993143 152 153 97
-0.6424 0.511083 0.943817 68 65 24
-0.647077 0.514497 0.967111 110 109 62
-0.759649 0.528182 0.948337 122 105 68
-0.657351 0.528749 0.95182 135 120 77
-0.695361 0.414147 0.987347 55 38 23
-0.833909 0.493161 1.08095 100 102 60
-0.70086 0.504682 0.964817 110 109 54
-0.717813 0.530193 0.94667 98 81 43
-0.692824 0.528029 0.926467 106 84 46
-0.807292 0.537502 0.97945 69 56 32
-0.692699 0.531029 0.919854 70 44 22
-0.869 0.324668 1.04129 136 116 78
-0.714155 0.372407 0.95365 110 108 86
-0.760721 0.367342 1.04003 152 144 99
-0.799148 0.382469 1.0493 118 100 84
-0.818441 0.387657 1.03284 110 88 52
-0.792568 0.396158 1.01526 96 73 42
-0.837356 0.440544 1.10065 79 54 39
-0.807811 0.537809 0.978049 152 153 96
-0.805658 0.53881 0.978594 153 162 110
-0.679692 0.531393 0.923761 152 145 110
-0.67107 0.533826 0.937051 144 138 106
-0.722241 0.536508 0.935681 111 114 72
-0.779188 0.601358 0.994996 148 146 87
-0.669006 0.607302 0.989927 45 40 17
-0.787914 0.624806 1.05063 118 116 68
-0.672934 0.609553 0.984994 98 87 48
-0.869501 0.323132 1.04606 32 36 15
-0.82153 0.362383 1.05522 29 28 16
-0.764276 0.371151 1.01972 24 14 6
-0.811086 0.372214 1.05326 105 98 75
-0.681929 0.409351 0.934667 137 116 86
-0.694624 0.412885 0.990147 48 34 19
-0.683188 0.416121 0.966474 60 50 36
-0.83932 0.424213 1.09588 84 78 62
-0.831686 0.437115 1.10631 100 86 66
-0.725404 0.471284 1.01276 62 41 28
-0.625581 0.467292 0.939904 72 28 18
-0.636716 0.478365 0.980654 118 94 81
-0.642932 0.48369 0.964604 116 94 56
-0.748837 0.506687 0.980188 114 84 66
-0.752098 0.509552 0.957042 102 92 70
-0.757913 0.517236 0.952985 79 40 22
-0.802464 0.537998 0.976846 144 133 101
-0.640843 0.554517 0.985436 86 82 52
-0.715192 0.553822 0.94595 90 91 56
-0.641394 0.570101 0.997279 140 137 81
-0.78656 0.581467 0.999315 107 96 70
-0.779686 0.605213 1.01916 144 144 87
-0.778744 0.606912 1.01568 110 108 64
-0.712297 0.605785 0.97439 110 116 74
-0.663571 0.597105 0.936481 108 110 72
-0.67368 0.610709 0.989245 78 58 38
-0.78271 0.629777 1.05811 103 102 57
-0.870302 0.322093 1.05125 157 152 116
-0.858505 0.331327 1.05359 76 62 42
-0.763398 0.370021 1.02601 56 64 30
-0.792005 0.393819 1.03015 150 143 98
-0.685868 0.417072 0.955052 54 47 26
-0.76893 0.431874 0.99213 105 107 82
-0.760977 0.435296 0.968041 98 92 72
-0.809943 0.45283 1.05601 148 144 113
-0.775742 0.454714 1.01175 128 125 67
-0.640341 0.467581 0.956006 94 99 62
-0.709223 0.495146 1.03133 86 84 48
-0.657067 0.512966 0.941554 156 156 118
-0.673072 0.515364 0.946962 64 46 20
-0.801953 0.549436 0.981127 86 65 48
-0.646779 0.567988 0.983794 78 34 25
-0.65197 0.580931 0.974779 155 148 110
-0.706642 0.597726 0.978838 117 94 78
-0.769766 0.629475 1.03011 122 89 68
-0.782063 0.396794 1.05005 114 118 76
-0.694201 0.411287 0.988815 112 108 96
-0.840695 0.426332 1.07529 57 62 35
-0.83863 0.43601 1.0685 161 157 123
-0.778619 0.454835 0.987462 153 125 123
-0.646241 0.467625 0.937406 73 77 43
-0.734321 0.48781 0.967106 71 80 31
-0.749902 0.510846 0.974832 86 82 54
-0.681334 0.51836 0.950187 84 82 42
-0.653067 0.524521 0.95105 86 90 53
-0.801132 0.541776 0.986273 78 74 45
-0.791692 0.549123 0.969227 26 33 14
-0.791278 0.567425 0.98918 106 106 76
-0.673854 0.567505 0.907126 88 80 72
-0.784321 0.639363 1.06221 157 150 130
-0.664598 0.643016 0.984945 157 125 137
-0.811732 0.374385 1.03683 118 65 88
-0.784282 0.39616 1.042 156 120 136
-0.838771 0.434926 1.07696 149 138 120
-0.751253 0.470083 1.04268 136 122 85
-0.650236 0.466524 0.926555 126 70 90
-0.650859 0.511712 0.961749 98 73 44
-0.660264 0.522195 0.930599 114 95 84
-0.658571 0.521352 0.921842 88 62 59
-0.647996 0.568195 0.981997 96 64 90
-0.784871 0.634958 1.04821 67 36 86
-0.891619 0.305366 1.04659 158 160 103
-0.594317 0.334605 0.864293 151 150 101
-0.596057 0.335957 0.863739 158 160 103
-0.642492 0.370098 0.907366 154 158 102
-0.666316 0.393926 0.928956 149 148 86
-0.686235 0.417108 0.951146 118 119 66
-0.746774 0.510821 0.983848 112 110 94
-0.654193 0.515181 0.949899 76 46 22
-0.674278 0.51787 0.944154 51 26 14
-0.616182 0.344268 0.892834 118 96 64
-0.62743 0.359044 0.885154 95 83 74
-0.748819 0.36312 0.962584 159 156 118
-0.643265 0.37015 0.905435 135 134 76
-0.672661 0.610111 0.98969 84 80 48
-0.589781 0.328433 0.851047 38 42 24
-0.858528 0.332679 1.04474 86 75 59
-0.606878 0.340194 0.8516 112 116 74
-0.759083 0.453013 0.984431 143 142 82
-0.767504 0.459874 1.00173 97 102 56
-0.914194 0.299882 1.04958 108 106 87
-0.844904 0.460062 1.04727 118 96 84
-0.614471 0.502055 1.00045 154 148 103
-0.610709 0.513948 1.01523 68 78 42
-0.701852 0.510606 0.933243 113 94 58
-0.700931 0.511376 0.932427 107 90 56
-0.610137 0.515306 1.0169 108 110 74
-0.613467 0.526978 1.01446 95 72 42
-0.610474 0.530066 1.02545 102 96 71
-0.763254 0.530248 0.944887 70 56 42
-0.609577 0.553297 1.03656 77 56 41
-0.609431 0.55587 1.03527 98 64 46
-0.670597 0.546215 0.95156 118 90 74
-0.673054 0.552139 0.95669 157 148 130
-0.635759 0.566723 1.00076 91 53 37
-0.617607 0.57474 1.03577 84 84 70
-0.636632 0.578973 1.00459 157 147 131
-0.754346 0.574425 0.962773 153 142 126
-0.671725 0.573683 0.968571 157 146 136
-0.727955 0.573802 0.954096 118 97 84
-0.636306 0.584345 1.00906 158 156 116
-0.75096 0.590495 0.97352 158 155 114
-0.753043 0.590677 0.971184 109 89 58
-0.635929 0.603616 1.01923 154 154 112
-0.636007 0.606425 1.02213 92 86 54
-0.656702 0.653892 1.02575 107 111 66
-0.653032 0.656047 1.03289 66 74 43
-0.704187 0.649832 1.00476 150 147 105
-0.670065 0.654756 1.01904 95 96 52
-0.65565 0.662388 1.0413 158 156 116
-0.671221 0.667049 1.02826 156 152 116
-0.679596 0.671442 1.03264 80 64 28
-0.713794 0.678957 1.02546 158 151 114
-0.636378 0.494015 0.961082 106 114 68
-0.624724 0.497782 0.98067 110 91 58
-0.767634 0.509112 0.939011 144 138 92
-0.608695 0.509718 1.01113 99 99 80
-0.661343 0.512157 0.958111 112 90 52
-0.701298 0.511793 0.933951 67 50 24
-0.637807 0.513171 0.959417 98 70 43
-0.663419 0.513834 0.950579 151 144 106
-0.609584 0.521541 1.0139 98 96 78
-0.763149 0.530148 0.944199 146 136 108
-0.608756 0.536302 1.02811 124 115 72
-0.669105 0.533768 0.941991 112 86 66
-0.790901 0.548932 0.96907 130 102 88
-0.635281 0.567109 1.0048 156 153 112
-0.757449 0.563623 0.96297 122 102 64
-0.728024 0.573585 0.953789 102 112 66
-0.636041 0.58364 1.01037 117 96 56
-0.660403 0.585368 0.980573 126 105 70
-0.747957 0.605118 0.992553 110 114 74
-0.635967 0.628738 1.03687 42 51 30
-0.739053 0.646677 1.00474 152 145 102
-0.648475 0.660524 1.03717 112 108 72
-0.656698 0.660246 1.03496 156 149 110
-0.670803 0.667348 1.03151 128 122 102
-0.755681 0.506432 0.943045 152 144 106
-0.612549 0.516969 1.00624 120 92 86
-0.769292 0.518162 0.952966 109 82 45
-0.673342 0.516317 0.944597 154 147 111
-0.609402 0.521252 1.0162 154 150 117
-0.675123 0.51716 0.9458 152 144 110
-0.761148 0.520969 0.939808 146 138 112
-0.763457 0.529965 0.948561 108 114 62
-0.759582 0.529752 0.941601 152 148 88
-0.723189 0.527626 0.918644 105 110 62
-0.655354 0.530152 0.953609 151 148 90
-0.617237 0.541039 1.01267 154 161 104
-0.609014 0.556983 1.0402 150 148 89
-0.671509 0.560679 0.960368 148 143 80
-0.673522 0.563879 0.965999 99 103 54
-0.636381 0.579329 1.00606 98 98 58
-0.754298 0.574907 0.962482 92 97 57
-0.641547 0.581954 0.995097 106 111 61
-0.645035 0.65785 1.04487 84 90 76
-0.651638 0.657439 1.0399 152 145 98
-0.730755 0.678118 1.03288 128 124 112
-0.70189 0.679024 1.03321 101 86 42
-0.701033 0.510856 0.94103 148 138 105
-0.700649 0.515552 0.93445 120 110 98
-0.761403 0.520489 0.933666 152 154 98
-0.702128 0.516861 0.915291 156 154 95
-0.678176 0.521424 0.950677 150 147 86
-0.761471 0.530244 0.946069 149 147 85
-0.722671 0.528298 0.92459 150 148 88
-0.777119 0.537723 0.950847 118 116 64
-0.790848 0.549192 0.971874 146 142 78
-0.670321 0.548407 0.957174 106 104 60
-0.672856 0.552906 0.962157 87 78 44
-0.718566 0.551965 0.941925 103 108 54
-0.757828 0.561116 0.954151 145 141 78
-0.674193 0.563278 0.96295 98 97 55
-0.771452 0.576757 0.979326 140 136 74
-0.632 0.584175 1.01892 98 98 85
-0.636505 0.588478 1.01452 96 100 49
-0.619196 0.599552 1.04515 63 67 39
-0.636364 0.605343 1.02172 36 42 28
-0.637353 0.626527 1.02875 100 101 56
-0.638577 0.652099 1.04443 148 122 94
-0.650152 0.648072 1.01285 130 110 69
-0.668346 0.653987 1.02025 104 108 76
-0.656488 0.663039 1.04237 122 96 77
-0.6762 0.670425 1.03505 116 118 90
-0.635456 0.494269 0.963971 94 90 64
-0.646851 0.502133 0.952733 112 109 92
-0.673414 0.515542 0.946167 91 78 74
-0.611749 0.520878 1.01308 148 142 110
-0.761428 0.520592 0.941623 106 102 88
-0.680225 0.519591 0.945194 148 140 102
-0.656706 0.520309 0.946461 108 109 58
-0.613092 0.526366 1.01205 148 142 102
-0.764791 0.529872 0.945161 99 98 62
-0.758291 0.529707 0.945794 140 138 80
-0.723399 0.528072 0.921914 93 97 48
-0.654143 0.530203 0.955099 100 104 62
-0.673911 0.535493 0.948329 148 139 121
-0.609519 0.558306 1.04464 64 52 24
-0.667575 0.549484 0.959141 121 100 64
-0.718517 0.551508 0.943041 118 97 56
-0.758091 0.561659 0.95794 154 148 102
-0.639642 0.569841 1.00114 139 118 80
-0.636952 0.581565 1.00855 154 154 112
-0.624878 0.598926 1.02695 105 114 67
-0.713947 0.592362 0.961911 150 143 100
-0.636973 0.604872 1.0211 70 70 42
-0.615758 0.61919 1.06729 103 94 72
-0.637682 0.627118 1.03156 146 141 96
-0.743843 0.622248 0.99305 108 88 50
-0.637878 0.499956 0.95676 80 76 44
-0.613981 0.503743 1.00119 92 78 50
-0.647193 0.501698 0.949404 73 62 46
-0.635362 0.522888 0.974568 141 135 92
-0.676256 0.522088 0.944412 121 120 105
