ply
format ascii 1.0
element vertex 1286
property float x
property float y
property float z
property uchar red
property uchar green
property uchar blue
end_header
-0.618504 0.449413 1.29561 78 81 52
-0.538735 0.403367 1.28487 152 143 126
-0.638235 0.432862 1.28499 118 92 54
-0.493957 0.596118 1.42624 104 84 70
-0.517154 0.409022 1.28314 74 72 42
-0.526562 0.616482 1.42716 30 11 7
-0.633975 0.404656 1.25562 78 80 52
-0.623897 0.410314 1.26267 112 186 47
-0.612589 0.421282 1.28305 76 75 46
-0.618029 0.464463 1.30336 75 74 43
-0.603199 0.616237 1.41688 76 77 51
-0.568547 0.431791 1.26713 124 98 80
-0.585565 0.431457 1.26344 123 96 76
-0.855947 0.0762218 1.44933 139 134 95
-0.40394 0.303843 1.38905 112 92 80
-0.41863 0.302123 1.40036 121 102 87
-0.405436 0.303782 1.38433 110 110 82
-0.419354 0.302799 1.39695 55 42 20
-0.420288 0.300874 1.4009 143 138 100
-0.614702 0.350959 1.39804 152 145 106
-0.61517 0.350955 1.39716 72 48 30
-0.600801 0.356489 1.39407 155 146 127
-0.600792 0.578185 1.37737 104 105 86
-0.673602 0.45184 1.33788 86 63 50
-0.660632 0.448833 1.31559 197 122 98
-0.564297 0.452404 1.2867 78 73 64
-0.561628 0.457051 1.29128 36 22 106
-0.616919 0.463528 1.29765 82 64 33
-0.498142 0.598022 1.4288 80 112 106
-0.512164 0.599057 1.42455 204 118 84
-0.56817 0.431515 1.26897 34 37 35
-0.661617 0.468238 1.33154 201 70 66
-0.617058 0.432483 1.27962 96 120 131
-0.500029 0.60719 1.44169 84 154 76
-0.568561 0.42138 1.2604 112 203 51
-0.613821 0.483982 1.31506 190 188 160
-0.624228 0.433494 1.28498 82 182 124
-0.661318 0.44922 1.31893 108 142 42
-0.51104 0.568323 1.39298 33 34 27
-0.535377 0.609919 1.40551 166 168 158
-0.527913 0.614519 1.41934 165 139 61
-0.556993 0.509913 1.32702 40 79 64
-0.56593 0.422363 1.26103 112 120 80
-0.680119 0.437104 1.32752 132 104 82
-0.617071 0.432989 1.28313 111 108 84
-0.685097 0.477992 1.37529 99 72 56
-0.665623 0.490403 1.36271 113 89 78
-0.533778 0.413632 1.25782 134 113 100
-0.660984 0.447636 1.31205 114 99 82
-0.656207 0.513289 1.37722 156 150 119
-0.607484 0.399385 1.30456 114 88 73
-0.625948 0.409844 1.25843 158 149 130
-0.532036 0.418775 1.24629 146 122 94
-0.530443 0.422054 1.24036 148 150 94
-0.567906 0.432712 1.27259 150 144 114
-0.560659 0.532969 1.34428 96 95 52
-0.511609 0.567892 1.38957 104 106 54
-0.532086 0.415328 1.26514 120 120 80
-0.531448 0.419729 1.24704 112 120 68
-0.566194 0.422402 1.26806 152 155 98
-0.677176 0.452923 1.34808 106 110 67
-0.563533 0.477821 1.32676 66 66 34
-0.612562 0.403152 1.28122 150 142 108
-0.533707 0.41387 1.25404 110 113 62
-0.567995 0.432862 1.27639 82 77 44
-0.528427 0.42192 1.25496 99 101 52
-0.53129 0.413165 1.25921 79 78 48
-0.660535 0.491801 1.35203 76 77 48
-0.444115 0.354131 1.31248 90 92 48
-0.736744 0.384764 1.39736 66 58 36
-0.744585 0.315423 1.45088 82 84 44
-0.728288 0.381416 1.43938 128 102 74
-0.606014 0.402472 1.34176 162 156 123
-0.853833 0.0778851 1.44597 157 157 100
-0.756671 0.161727 1.44496 154 156 98
-0.636996 0.26033 1.40063 110 114 76
-0.736113 0.305191 1.49388 118 124 90
-0.740947 0.31485 1.4537 89 88 62
-0.743774 0.315281 1.45052 56 52 28
-0.73934 0.34241 1.41372 53 62 38
-0.622408 0.366072 1.3591 55 31 18
-0.747239 0.374686 1.40343 134 131 98
-0.490716 0.40543 1.32437 135 110 80
-0.493608 0.408125 1.32518 99 106 64
-0.479798 0.418324 1.30556 102 82 52
-0.490007 0.428688 1.3109 94 74 43
-0.502097 0.430839 1.28901 104 106 78
-0.64054 0.445092 1.36216 104 105 80
-0.50468 0.432325 1.28394 48 52 26
-0.50428 0.453151 1.3151 138 126 104
-0.656421 0.525093 1.39116 106 87 54
-0.561917 0.510603 1.32579 156 156 114
-0.562147 0.523503 1.33031 152 148 103
-0.606796 0.551851 1.35782 155 154 112
-0.602498 0.553537 1.36158 150 149 110
-0.560006 0.555165 1.35272 151 144 100
-0.559636 0.561509 1.35628 110 92 63
-0.498431 0.597842 1.42683 106 88 56
-0.494171 0.600369 1.43527 76 62 35
-0.597746 0.58559 1.38231 112 94 66
-0.517523 0.593113 1.40583 150 142 98
-0.520246 0.5952 1.40958 150 146 105
-0.529263 0.612741 1.41328 110 108 74
-0.588005 0.615452 1.40572 150 146 104
-0.552885 0.619217 1.41409 148 142 100
-0.558771 0.6274 1.42404 116 96 60
-0.839877 0.108206 1.42785 72 54 44
-0.744965 0.315018 1.45597 142 122 80
-0.741315 0.314983 1.45614 118 116 104
-0.745148 0.329372 1.43782 83 79 48
-0.570951 0.331631 1.35581 74 56 38
-0.749598 0.342266 1.39991 106 104 76
-0.850407 0.35903 1.40631 134 129 94
-0.608001 0.358635 1.39507 122 98 66
-0.62298 0.366092 1.36351 154 156 120
-0.748075 0.379795 1.41291 68 66 48
-0.54056 0.396903 1.34454 142 138 104
-0.502107 0.413972 1.29589 155 147 110
-0.47992 0.418917 1.30795 134 126 92
-0.500424 0.432785 1.29955 108 112 70
-0.502906 0.434429 1.29642 148 142 110
-0.50467 0.4488 1.30767 91 92 56
-0.501689 0.453172 1.3177 142 144 90
-0.699953 0.487355 1.43884 136 128 96
-0.605622 0.543765 1.35635 115 104 78
-0.602185 0.553254 1.36142 104 104 82
-0.497565 0.595654 1.42213 68 52 32
-0.514288 0.596331 1.41255 117 118 80
-0.557329 0.593979 1.38699 82 62 42
-0.55413 0.620107 1.41573 141 116 70
-0.722728 0.193702 1.42316 94 72 42
-0.637271 0.260369 1.39638 42 14 8
-0.748232 0.379301 1.41267 108 90 59
-0.494284 0.408084 1.32524 64 46 25
-0.679528 0.418334 1.35306 121 118 74
-0.480895 0.418622 1.30393 153 154 99
-0.490234 0.428577 1.3092 116 101 64
-0.503044 0.427274 1.28127 148 150 102
-0.505214 0.430047 1.29697 114 109 72
-0.636785 0.431933 1.28049 140 125 82
-0.501168 0.452493 1.31608 98 98 57
-0.685544 0.477514 1.37777 52 25 13
-0.562082 0.508898 1.32246 126 111 70
-0.564808 0.51135 1.32649 114 116 78
-0.559139 0.511826 1.32719 47 48 24
-0.655241 0.529618 1.39337 58 63 26
-0.632873 0.579531 1.38908 124 123 80
-0.59986 0.576133 1.38012 66 64 54
-0.597941 0.575488 1.37795 41 23 19
-0.495254 0.600228 1.43829 48 32 23
-0.595642 0.608728 1.40444 148 144 100
-0.839768 0.107532 1.42588 104 83 47
-0.822246 0.129154 1.44904 136 132 91
-0.638353 0.259531 1.40056 112 65 46
-0.744469 0.315735 1.44862 157 147 128
-0.741069 0.314927 1.45266 73 33 19
-0.570925 0.331668 1.35263 126 92 74
-0.61551 0.350178 1.39584 76 35 15
-0.72479 0.360214 1.33345 106 79 76
-0.609501 0.395309 1.30611 124 118 90
-0.54145 0.396681 1.29687 122 95 60
-0.504864 0.409126 1.29966 110 119 66
-0.511601 0.412048 1.30527 158 160 104
-0.504078 0.426043 1.27395 141 145 94
-0.674438 0.475114 1.35945 150 150 93
-0.661473 0.492125 1.36088 146 138 78
-0.684185 0.532118 1.45996 103 100 64
-0.656493 0.530492 1.40227 48 55 30
-0.559404 0.508618 1.31571 40 28 13
-0.601083 0.55315 1.3614 69 65 39
-0.558843 0.559192 1.36356 101 102 76
-0.604015 0.582161 1.3799 86 78 46
-0.853539 0.0784848 1.4429 144 139 94
-0.823503 0.114696 1.43409 96 94 68
-0.781972 0.145385 1.4341 38 42 17
-0.857607 0.360662 1.41711 116 99 70
-0.727631 0.374664 1.39096 158 151 114
-0.494713 0.407704 1.32544 114 92 56
-0.479806 0.407424 1.31601 102 104 56
-0.513208 0.412071 1.30388 88 64 51
-0.514917 0.415672 1.29955 152 138 120
-0.503256 0.423949 1.28506 49 23 14
-0.491221 0.429723 1.30966 108 88 76
-0.510873 0.428736 1.28052 90 78 64
-0.500074 0.433344 1.30044 44 18 13
-0.501206 0.436432 1.31623 148 131 118
-0.504881 0.44973 1.30922 158 155 112
-0.699225 0.481833 1.41582 126 118 88
-0.683626 0.549597 1.4709 112 108 90
-0.561614 0.530878 1.33703 106 107 68
-0.517858 0.598962 1.41378 88 74 48
-0.840269 0.105661 1.42513 154 152 121
-0.737277 0.302597 1.47136 154 147 104
-0.731455 0.307432 1.47279 66 74 40
-0.740963 0.315736 1.45141 68 64 30
-0.618162 0.34829 1.38107 64 34 20
-0.856161 0.360369 1.40752 82 81 43
-0.733304 0.376132 1.42427 104 106 81
-0.494972 0.407918 1.32503 96 82 64
-0.50337 0.430749 1.29797 76 72 58
-0.67695 0.475086 1.36246 117 92 76
-0.63825 0.486049 1.33331 116 101 68
-0.695244 0.515884 1.45712 114 88 54
-0.661487 0.494813 1.36764 115 86 68
-0.685232 0.53453 1.46427 60 66 31
-0.746757 0.377573 1.39497 102 81 71
-0.680095 0.472198 1.36432 28 11 6
-0.591492 0.611439 1.39821 34 12 9
-0.762096 0.372837 1.46034 110 74 68
-0.608979 0.583457 1.38765 13 4 1
-0.558299 0.587342 1.3806 72 134 38
-0.490415 0.405633 1.30962 104 104 80
-0.816903 0.110325 1.44575 110 96 78
-0.479123 0.422746 1.30565 146 142 78
-0.504388 0.452681 1.3159 148 142 101
-0.481684 0.420995 1.30196 106 100 86
-0.48066 0.425369 1.30807 116 111 93
-0.508572 0.41625 1.29583 115 94 58
-0.587817 0.610485 1.39133 108 85 49
-0.745476 0.329209 1.43891 83 76 62
-0.744973 0.328619 1.43474 156 158 122
-0.602449 0.62188 1.41224 151 146 101
-0.616323 0.424139 1.28757 35 22 5
-0.528267 0.610067 1.41446 68 31 24
-0.618973 0.423418 1.28684 79 82 54
-0.615962 0.423109 1.28236 92 89 46
-0.618202 0.449373 1.29408 40 33 20
-0.616656 0.464063 1.30359 40 38 20
-0.530197 0.613331 1.41178 113 88 70
-0.622385 0.433909 1.29061 52 40 20
-0.618198 0.449399 1.29268 145 140 76
-0.601693 0.552441 1.36023 142 116 90
-0.618571 0.423507 1.2863 158 162 104
-0.611763 0.501525 1.32251 138 117 68
-0.637883 0.433159 1.28617 127 110 84
-0.60173 0.578186 1.3794 122 126 93
-0.536246 0.615497 1.41674 101 106 62
-0.491606 0.436618 1.34053 158 153 112
-0.618324 0.411584 1.28826 109 94 72
-0.618109 0.464754 1.3096 153 155 126
-0.480414 0.387801 1.31445 84 76 56
-0.609145 0.521822 1.34579 38 120 2
-0.464239 0.383908 1.30754 204 205 176
-0.565405 0.4231 1.27409 116 48 90
-0.677038 0.43446 1.32517 65 76 21
-0.660204 0.431498 1.29682 198 81 56
-0.563918 0.474449 1.31259 73 123 88
-0.56126 0.532153 1.34159 140 125 72
-0.642208 0.411007 1.3116 72 144 18
-0.534123 0.408709 1.27511 47 50 89
-0.568871 0.431809 1.27049 142 79 178
-0.565802 0.423706 1.27441 76 200 186
-0.515758 0.565511 1.39008 100 87 60
-0.566076 0.4239 1.27902 96 120 153
-0.571137 0.458229 1.30122 36 114 83
-0.557097 0.510014 1.32298 17 8 37
-0.613043 0.404719 1.29052 190 192 36
-0.438953 0.207908 1.26591 108 107 68
-0.724091 0.192379 1.43921 154 157 101
-0.631627 0.20219 1.4533 106 108 67
-0.708399 0.206974 1.43838 113 122 70
-0.694225 0.219369 1.44595 108 115 66
-0.495567 0.25801 1.314 154 153 95
-0.734349 0.268095 1.53441 150 148 87
-0.53311 0.276557 1.3889 152 153 97
-0.464565 0.403899 1.30876 68 65 24
-0.473441 0.409378 1.34286 110 109 62
-0.61656 0.421675 1.29166 122 105 68
-0.485929 0.426351 1.31456 135 120 77
-0.534166 0.27634 1.37966 55 38 23
-0.73696 0.380098 1.49374 100 102 60
-0.542566 0.394349 1.32934 110 109 54
-0.562778 0.425745 1.29671 98 81 43
-0.528076 0.42267 1.27073 106 84 46
-0.683434 0.434071 1.33182 69 56 32
-0.527125 0.42615 1.26099 70 44 22
-0.551872 0.219096 1.33361 110 108 86
-0.62751 0.211192 1.45614 152 144 99
-0.681106 0.230766 1.45957 118 100 84
-0.704109 0.236744 1.43182 110 88 52
-0.666542 0.249377 1.40494 96 73 42
-0.688378 0.333925 1.38026 76 68 57
-0.683828 0.434292 1.32898 152 153 96
-0.681213 0.435797 1.33086 153 162 110
-0.511207 0.42724 1.26835 152 145 110
-0.502042 0.431404 1.28898 144 138 106
-0.567484 0.432509 1.27526 111 114 72
-0.563969 0.505299 1.30669 72 66 46
-0.651711 0.519624 1.35745 148 146 87
-0.508515 0.530293 1.36514 45 40 17
-0.673765 0.555989 1.44397 118 116 68
-0.512395 0.533579 1.36074 98 87 48
-0.774049 0.146202 1.45322 32 36 15
-0.711916 0.20214 1.47011 29 28 16
-0.628957 0.216302 1.42271 24 14 6
-0.697389 0.216755 1.46224 105 98 75
-0.509019 0.269576 1.30348 137 116 86
-0.533519 0.274716 1.38438 48 34 19
-0.515504 0.279125 1.34881 60 50 36
-0.580111 0.351932 1.4028 62 41 28
-0.439581 0.347719 1.31321 72 28 18
-0.459355 0.363335 1.37148 118 94 81
-0.466262 0.369365 1.34342 116 94 56
-0.60702 0.395906 1.34208 114 84 66
-0.607635 0.398433 1.30759 102 92 70
-0.614695 0.407968 1.30039 79 40 22
-0.676943 0.435255 1.33291 144 133 101
-0.469326 0.462631 1.36775 86 82 52
-0.560273 0.455957 1.29318 90 91 56
-0.472009 0.483787 1.38483 140 137 81
-0.661452 0.493886 1.36483 107 96 70
-0.656749 0.527868 1.39924 144 144 87
-0.654951 0.529788 1.39366 110 108 64
-0.562192 0.525433 1.33459 110 116 74
-0.49481 0.512381 1.28476 108 110 72
-0.514402 0.53477 1.36429 78 58 38
-0.668609 0.565409 1.46386 103 102 57
-0.776075 0.144837 1.46061 157 152 116
-0.76051 0.158437 1.46306 76 62 42
-0.6288 0.214679 1.43368 56 64 30
-0.668492 0.246021 1.4317 150 143 98
-0.517402 0.280039 1.33157 54 47 26
-0.632496 0.297507 1.36988 105 107 82
-0.618234 0.301781 1.33417 98 92 72
-0.698607 0.325696 1.45783 148 144 113
-0.691355 0.333239 1.40823 91 87 58
-0.696065 0.34223 1.37879 148 119 96
-0.460922 0.348124 1.33348 94 99 62
-0.562156 0.385064 1.4358 86 84 48
-0.483322 0.405642 1.30227 156 156 118
-0.50448 0.408517 1.30831 64 46 20
-0.677278 0.450174 1.33648 86 65 48
-0.477526 0.479649 1.36237 78 34 25
-0.483762 0.495411 1.34628 155 148 110
-0.555385 0.515363 1.34171 117 94 78
-0.646183 0.558593 1.40499 122 89 68
-0.564573 0.548909 1.32234 146 48 83
-0.65883 0.250684 1.46377 114 118 76
-0.53274 0.272599 1.38233 112 108 96
-0.697366 0.338608 1.41403 152 160 104
-0.466164 0.347317 1.3054 73 77 43
-0.585749 0.371291 1.32497 71 80 31
-0.607442 0.401436 1.33919 86 82 54
-0.516066 0.412028 1.30904 84 82 42
-0.479964 0.421118 1.31541 86 90 53
-0.677082 0.441026 1.34879 78 74 45
-0.661549 0.448267 1.3112 26 33 14
-0.665255 0.473892 1.34531 106 106 76
-0.660771 0.49505 1.36052 84 78 58
-0.503711 0.471667 1.23931 88 80 72
-0.561494 0.530935 1.3511 124 12 8
-0.671972 0.579828 1.47399 157 150 130
-0.502994 0.577001 1.35866 78 74 62
-0.695414 0.21924 1.43898 37 14 8
-0.660299 0.249889 1.44857 76 70 56
-0.695893 0.340164 1.35223 48 32 24
-0.469692 0.34537 1.28986 45 18 14
-0.477305 0.405445 1.3356 22 27 11
-0.486956 0.416578 1.28246 74 76 50
-0.483496 0.415187 1.27087 38 36 24
-0.478485 0.480084 1.36139 23 22 12
-0.66988 0.57138 1.44778 35 35 10
-0.802177 0.122818 1.44284 158 160 103
-0.37645 0.170118 1.23895 151 150 101
-0.378929 0.171976 1.23728 158 160 103
-0.450915 0.218172 1.27834 154 158 102
-0.487075 0.24964 1.29905 149 148 86
-0.517537 0.280041 1.3236 118 119 66
-0.605191 0.401408 1.34606 112 110 94
-0.480116 0.409012 1.31809 76 46 22
-0.506017 0.411219 1.3027 51 26 14
-0.357737 0.159203 1.22376 121 102 74
-0.411142 0.1834 1.27088 118 96 64
-0.426986 0.20344 1.25256 95 83 74
-0.599146 0.207339 1.33041 159 156 118
-0.451743 0.218241 1.27516 135 134 76
-0.513587 0.533225 1.36306 84 80 48
-0.36793 0.161668 1.22252 38 42 24
-0.393066 0.17796 1.2146 112 116 74
-0.619173 0.325728 1.35135 143 142 82
-0.633099 0.33497 1.37751 97 102 56
-0.833208 0.114339 1.44503 108 106 87
-0.43429 0.395992 1.3957 154 148 103
-0.431108 0.412893 1.42071 68 78 42
-0.540152 0.400273 1.2783 113 94 58
-0.538898 0.401216 1.27763 107 90 56
-0.430472 0.414843 1.42401 108 110 74
-0.435103 0.430012 1.41889 95 72 42
-0.43276 0.434439 1.43383 102 96 71
-0.621044 0.423513 1.28452 70 56 42
-0.43369 0.465866 1.44909 77 56 41
-0.433385 0.469357 1.44795 98 64 46
-0.503629 0.448487 1.30902 118 90 74
-0.507595 0.456368 1.3161 157 148 130
-0.464867 0.479921 1.38844 91 53 37
-0.445158 0.4938 1.44556 84 84 70
-0.46694 0.496143 1.39345 157 147 131
-0.613878 0.481906 1.31105 153 142 126
-0.50818 0.485017 1.33268 157 146 136
-0.5785 0.481268 1.29992 118 97 84
-0.467 0.504152 1.40383 158 156 116
-0.611425 0.503282 1.32467 158 155 114
-0.613968 0.503579 1.32259 109 89 58
-0.468597 0.529651 1.41448 154 154 112
-0.469139 0.533577 1.41878 92 86 54
-0.498608 0.595484 1.41954 107 111 66
-0.494667 0.599505 1.43191 66 74 43
-0.557699 0.585507 1.37845 150 147 105
-0.515259 0.595184 1.40629 95 96 52
-0.499243 0.608771 1.44575 158 156 116
-0.518383 0.612098 1.4193 156 152 116
-0.530128 0.617978 1.42505 80 64 28
-0.574074 0.624641 1.40558 158 151 114
-0.458422 0.382801 1.33229 106 114 68
-0.445221 0.389281 1.36586 110 91 58
-0.62515 0.395946 1.27742 144 138 92
-0.427817 0.40719 1.41512 99 99 80
-0.491215 0.405109 1.32177 112 90 52
-0.539581 0.401807 1.27909 67 50 24
-0.460828 0.407653 1.3296 98 70 43
-0.493027 0.407025 1.31243 151 144 106
-0.429768 0.422943 1.4185 98 96 78
-0.620876 0.423412 1.28451 146 136 108
-0.430957 0.442937 1.43817 124 115 72
-0.500089 0.432005 1.29653 112 86 66
-0.661162 0.44808 1.31735 130 102 88
-0.464616 0.48104 1.39584 156 153 112
-0.61754 0.467821 1.31131 122 102 64
-0.578716 0.481311 1.30147 102 112 66
-0.46693 0.502878 1.40247 117 96 56
-0.495356 0.501664 1.35228 126 105 70
-0.610921 0.523846 1.35261 110 114 74
-0.471495 0.564785 1.44262 42 51 30
-0.602885 0.579364 1.37195 152 145 102
-0.489178 0.606337 1.44077 112 108 72
-0.49991 0.605059 1.43424 156 149 110
-0.518291 0.613002 1.42494 128 122 102
-0.610279 0.3931 1.28403 152 144 106
-0.432725 0.41633 1.40614 120 92 86
-0.629691 0.408346 1.29739 109 82 45
-0.505205 0.40947 1.30097 154 147 111
-0.429628 0.422745 1.42296 154 150 117
-0.507637 0.410479 1.30137 152 144 110
-0.616968 0.411348 1.27591 146 138 112
-0.621911 0.423327 1.29058 108 114 62
-0.615563 0.422741 1.27913 152 148 88
-0.566012 0.420393 1.25212 105 110 62
-0.483589 0.428579 1.31626 151 148 90
-0.44074 0.447931 1.41212 154 161 104
-0.433429 0.471191 1.45577 150 148 89
-0.506383 0.467695 1.32121 148 143 80
-0.509809 0.472068 1.32892 99 103 54
-0.466771 0.496802 1.39573 98 98 58
-0.613794 0.482478 1.3105 92 97 57
-0.472255 0.499478 1.37932 106 111 61
-0.485671 0.602906 1.44942 84 90 76
-0.493741 0.602085 1.44426 152 145 98
-0.597446 0.623917 1.41591 128 124 112
-0.559752 0.626249 1.42001 101 86 42
-0.540172 0.400933 1.28987 148 138 105
-0.538979 0.40672 1.28015 120 110 98
-0.616248 0.410476 1.26639 152 154 98
-0.538373 0.407376 1.25133 156 154 95
-0.512407 0.416104 1.30805 150 147 86
-0.618953 0.423709 1.28701 149 147 85
-0.566196 0.421582 1.26084 150 148 88
-0.639613 0.43288 1.28956 118 116 64
-0.661453 0.448466 1.32062 146 142 78
-0.504015 0.451699 1.31833 106 104 60
-0.508088 0.457713 1.32436 87 78 44
-0.564194 0.453213 1.28652 103 108 54
-0.616534 0.463955 1.29747 145 141 78
-0.510291 0.471083 1.32464 98 97 55
-0.638104 0.485172 1.33075 140 136 74
-0.46273 0.504159 1.41553 98 98 85
-0.468122 0.509772 1.4098 96 100 49
-0.44918 0.527339 1.45879 63 67 39
-0.46951 0.532132 1.41827 36 42 28
-0.472383 0.560825 1.42868 100 101 56
-0.476832 0.596122 1.45189 148 122 94
-0.488184 0.586845 1.40074 130 110 69
-0.513083 0.594506 1.40972 104 108 76
-0.500722 0.609017 1.44412 122 96 77
-0.525965 0.617114 1.42923 116 118 90
-0.45758 0.383267 1.33642 94 90 64
-0.471414 0.392528 1.31721 112 109 92
-0.50546 0.408554 1.30341 91 78 74
-0.432412 0.421961 1.41757 148 142 110
-0.617924 0.411184 1.28145 106 102 88
-0.514284 0.413406 1.29981 148 140 102
-0.484059 0.415476 1.30742 108 109 58
-0.434306 0.429101 1.41539 148 142 102
-0.623097 0.422977 1.28539 99 98 62
-0.614553 0.422991 1.28494 140 138 80
-0.566747 0.421126 1.25685 93 97 48
-0.482193 0.4288 1.31869 100 104 62
-0.507102 0.434271 1.30396 148 139 121
-0.434665 0.473037 1.46221 64 52 24
-0.500753 0.453271 1.32044 121 100 64
-0.564265 0.452677 1.28808 118 97 56
-0.617526 0.465047 1.30414 154 148 102
-0.470128 0.483815 1.38797 139 118 80
-0.467897 0.499776 1.39889 154 154 112
-0.454689 0.524761 1.42912 105 114 67
-0.562403 0.506713 1.31464 150 143 100
-0.470234 0.531404 1.41712 70 70 42
-0.447748 0.555631 1.4937 103 94 72
-0.473145 0.561701 1.43283 146 141 96
-0.606367 0.546406 1.35411 108 88 50
-0.459925 0.390478 1.32886 80 76 44
-0.433569 0.398534 1.39873 92 78 50
-0.471306 0.39194 1.31341 73 62 46
-0.459736 0.421034 1.35087 141 135 92
-0.509182 0.416733 1.29905 121 120 105
-0.644645 0.421918 1.29069 94 92 78
-0.567511 0.4215 1.25926 156 146 132
-0.444464 0.447478 1.39541 64 36 20
-0.568979 0.42985 1.2597 153 141 130
-0.466131 0.443374 1.35577 124 90 74
-0.505559 0.448879 1.30476 122 100 66
-0.677941 0.471927 1.35863 148 140 110
-0.617332 0.465528 1.3025 152 144 112
-0.471557 0.482434 1.37866 155 154 121
-0.468399 0.498753 1.39531 103 100 61
-0.615195 0.483895 1.31581 112 118 66
-0.443646 0.517942 1.46872 155 152 117
-0.473588 0.504479 1.38631 144 140 114
-0.451594 0.548599 1.46614 148 139 96
-0.60654 0.545485 1.35386 118 118 69
-0.601404 0.628064 1.42692 115 113 72
-0.429608 0.399413 1.37915 80 76 63
-0.460082 0.408667 1.33934 80 118 65
-0.433341 0.418295 1.40877 115 122 61
-0.616139 0.408213 1.27221 83 78 71
-0.43368 0.42955 1.43445 29 34 14
-0.508633 0.415935 1.29916 78 74 61
-0.468238 0.465937 1.38989 79 74 66
-0.444201 0.481097 1.45515 82 77 71
-0.450042 0.503046 1.46105 81 76 64
-0.660321 0.48757 1.34786 74 72 42
-0.637188 0.485172 1.33027 78 80 52
-0.467616 0.500095 1.40699 79 75 62
-0.443738 0.515511 1.46492 40 20 10
-0.518068 0.604215 1.42897 76 70 66
-0.537288 0.617094 1.41947 79 74 70
-0.643095 0.405125 1.29269 74 71 40
-0.615225 0.406326 1.27676 73 71 40
-0.508987 0.409927 1.30826 73 70 39
-0.442617 0.432535 1.39104 27 34 14
-0.470212 0.463092 1.36925 80 76 63
-0.47172 0.484758 1.38991 82 78 68
-0.662163 0.494534 1.36879 80 76 63
-0.722595 0.347091 1.2935 42 50 26
-0.611031 0.400834 1.29248 88 58 40
-0.461143 0.407282 1.32639 156 131 90
-0.675311 0.415208 1.31892 153 146 102
-0.470681 0.426235 1.31422 144 128 94
-0.619261 0.424817 1.28977 66 52 35
-0.506285 0.467491 1.31886 120 96 82
-0.487431 0.50917 1.37299 130 110 70
-0.471419 0.564269 1.43763 91 84 54
-0.515333 0.569534 1.39036 81 64 34
-0.541504 0.397197 1.29949 116 118 76
-0.483684 0.40334 1.31902 66 48 34
-0.484041 0.426771 1.30555 114 89 54
-0.507344 0.456289 1.31912 119 108 74
-0.524499 0.617551 1.43147 116 117 82
-0.59276 0.617873 1.41175 153 148 110
-0.597566 0.625075 1.4182 78 58 49
-0.540854 0.399521 1.29116 104 78 48
-0.461577 0.407309 1.31986 128 112 100
-0.619399 0.423078 1.28311 153 150 90
-0.469255 0.529475 1.41021 106 108 51
-0.675144 0.416794 1.3318 93 92 58
-0.504203 0.434443 1.30113 98 91 50
-0.483073 0.402068 1.31336 154 152 91
-0.464185 0.418998 1.32291 103 82 46
-0.481141 0.420905 1.30916 106 96 60
-0.646127 0.558149 1.40717 144 116 91
-0.598441 0.623105 1.41114 88 76 69
-0.630728 0.406098 1.29412 158 153 114
-0.491998 0.427961 1.29685 156 153 112
-0.639528 0.613657 1.44317 148 144 82
-0.642776 0.408021 1.3012 150 72 64
-0.629557 0.403662 1.28793 62 31 90
-0.46863 0.430335 1.32519 86 73 68
-0.450326 0.373013 1.34211 61 38 21
-0.503703 0.449579 1.31167 149 129 86
-0.5676 0.456595 1.29066 118 114 83
-0.491305 0.429072 1.30827 64 62 46
-0.661962 0.464231 1.30749 150 144 101
-0.506244 0.468214 1.32774 132 122 76
-0.591487 0.614773 1.40792 158 150 132
-0.467877 0.463922 1.37327 98 58 36
-0.564167 0.488386 1.30738 156 146 120
-0.471408 0.428816 1.32874 50 26 18
-0.625183 0.433727 1.29095 120 117 83
-0.56481 0.45363 1.29149 160 150 130
-0.569635 0.456582 1.29385 155 144 126
-0.462527 0.354786 1.33932 114 94 62
-0.570982 0.456304 1.29371 80 75 60
-0.561462 0.456651 1.28885 94 56 50
-0.654668 0.521052 1.37133 196 72 46
-0.56155 0.524825 1.33525 154 142 108
-0.602794 0.588325 1.39401 144 138 97
-0.658216 0.0496701 1.61104 107 102 57
-0.676198 0.0631967 1.59111 131 128 80
-0.674265 0.0756534 1.58617 100 86 48
-0.827372 0.124816 1.46574 90 92 80
-0.654556 0.10703 1.53823 131 114 80
-0.649076 0.128576 1.51574 86 79 46
-0.660343 0.155539 1.51486 94 80 40
-0.573167 0.199824 1.4482 176 80 42
-0.723375 0.216878 1.43768 56 36 34
-0.75416 0.33838 1.41581 141 122 102
-0.462331 0.352068 1.36634 75 52 38
-0.45944 0.357129 1.3755 147 144 107
-0.608951 0.394828 1.30277 128 112 92
-0.613805 0.396601 1.29428 79 108 84
-0.460304 0.418959 1.33879 38 39 62
-0.533721 0.418774 1.28434 168 140 134
-0.6824 0.431907 1.32015 70 103 8
-0.530592 0.430991 1.28296 35 139 134
-0.561074 0.441914 1.28169 74 68 99
-0.564159 0.452219 1.2884 180 122 38
-0.666782 0.470435 1.34277 90 190 83
-0.652922 0.525553 1.37352 204 204 174
-0.560674 0.533624 1.34314 74 200 169
-0.635902 0.596144 1.4408 107 150 84
-0.799378 0.149355 1.4349 190 192 75
-0.759225 0.160106 1.45439 176 129 66
-0.695574 0.21913 1.44438 68 78 43
-0.689305 0.225308 1.40405 208 204 195
-0.705689 0.235521 1.43805 66 69 120
-0.702053 0.349187 1.30573 76 104 100
-0.460085 0.352171 1.38229 121 106 62
-0.457356 0.393411 1.34564 83 77 71
-0.461102 0.418581 1.33293 94 156 156
-0.469839 0.427415 1.32634 174 79 50
-0.530076 0.430902 1.28913 181 123 84
-0.464836 0.442367 1.35418 202 77 48
-0.506226 0.431858 1.27889 32 72 54
-0.560925 0.475279 1.3066 202 200 169
-0.563437 0.488175 1.3136 41 68 50
-0.494997 0.503738 1.36278 30 31 54
-0.507027 0.509492 1.3577 168 172 147
-0.656137 0.524934 1.38897 74 199 168
-0.652883 0.0638878 1.59559 132 132 80
-0.650733 0.0705861 1.58811 27 66 142
-0.655751 0.104902 1.544 30 128 38
-0.710855 0.205049 1.44722 206 202 188
-0.721641 0.339035 1.32807 78 106 84
-0.704838 0.34943 1.32004 37 152 138
-0.461624 0.406447 1.32142 131 170 167
-0.453299 0.41552 1.34375 137 114 84
-0.45964 0.419577 1.34635 44 82 90
-0.53357 0.419522 1.28339 76 141 50
-0.484382 0.42324 1.30531 109 144 47
-0.683195 0.432898 1.32222 126 116 86
-0.52977 0.430423 1.28342 59 152 12
-0.803495 0.150615 1.45046 112 130 60
-0.569378 0.239938 1.40763 36 40 66
-0.637982 0.260711 1.38478 98 22 65
-0.628572 0.297903 1.35381 40 14 8
-0.630879 0.408501 1.30302 163 169 145
-0.647129 0.423621 1.30744 152 30 19
-0.675946 0.433098 1.32041 26 64 142
-0.471817 0.426941 1.30066 157 159 150
-0.532312 0.426299 1.27919 160 146 12
-0.561681 0.531289 1.34028 166 144 138
-0.724151 0.339063 1.34296 56 42 25
-0.465443 0.352347 1.33879 85 102 88
-0.609881 0.399529 1.30778 118 152 94
-0.514949 0.412892 1.3075 102 148 37
-0.559607 0.453401 1.28028 101 74 88
-0.507692 0.467905 1.32313 142 80 86
-0.680405 0.480518 1.3268 63 166 64
-0.563575 0.489834 1.31268 76 110 148
-0.560206 0.568616 1.38855 42 172 152
-0.460459 0.4065 1.33358 128 0 0
-0.53244 0.420432 1.2982 34 84 0
-0.510936 0.453702 1.31067 0 28 4
-0.569852 0.493066 1.31828 94 34 52
-0.560872 0.551758 1.33468 28 38 23
-0.613077 0.396709 1.29564 106 104 82
-0.541404 0.396857 1.29806 132 112 75
-0.633932 0.401665 1.29842 119 90 62
-0.507287 0.410634 1.30168 138 130 92
-0.6776 0.433217 1.32037 92 94 78
-0.461287 0.407227 1.32558 66 40 26
-0.628429 0.411059 1.30539 92 56 42
-0.616257 0.409861 1.26707 48 28 18
-0.475998 0.431727 1.33493 120 116 102
-0.616849 0.433069 1.28296 110 102 80
-0.571501 0.413851 1.27492 154 141 134
-0.594718 0.535508 1.33855 108 116 61
-0.645809 0.559655 1.4099 38 36 22
-0.597375 0.58456 1.3818 128 128 76
-0.451669 0.375629 1.32434 112 94 52
-0.61287 0.422667 1.28359 152 146 102
-0.491584 0.407844 1.3227 20 22 14
-0.695065 0.413732 1.32002 0 0 0
-0.490318 0.414583 1.2808 74 72 40
-0.484643 0.418944 1.29316 42 44 20
-0.370099 0.162533 1.22394 148 146 84
-0.370116 0.164048 1.22824 149 146 86
-0.378745 0.17152 1.22911 63 67 35
-0.36625 0.160563 1.22573 64 65 50
-0.375902 0.170709 1.22093 124 106 82
-0.501823 0.533646 1.38611 80 73 70
-0.48498 0.608878 1.46568 45 98 148
-0.406435 0.343417 1.91936 73 72 40
-0.686509 0.25522 1.42125 102 100 61
-0.717415 0.274127 1.48778 105 108 66
-0.520553 0.277983 1.35695 117 119 79
-0.521167 0.282061 1.31185 127 127 80
-0.395366 0.281552 1.35445 155 156 98
-0.747696 0.286763 1.52927 132 134 84
-0.729414 0.302893 1.49627 150 148 89
-0.745952 0.310737 1.50237 151 152 93
-0.54775 0.308167 1.34009 150 149 88
-0.420301 0.30407 1.39994 112 118 64
-0.408775 0.306244 1.38783 150 148 89
-0.683292 0.31416 1.35658 101 98 56
-0.583454 0.315066 1.39849 154 150 92
-0.54044 0.317082 1.44398 150 149 92
-0.528345 0.320556 1.53971 132 133 87
-0.452709 0.319003 1.47062 128 126 77
-0.748942 0.328354 1.44862 104 110 65
-0.453439 0.321556 1.47114 91 93 53
-0.444912 0.32257 1.47274 102 103 55
-0.671072 0.331235 1.39609 156 154 94
-0.470174 0.33453 1.50635 149 146 86
-0.704581 0.350226 1.5228 154 154 96
-0.438749 0.340693 1.4475 145 140 82
-0.60816 0.359414 1.40375 149 146 83
-0.760133 0.367173 1.45775 142 138 92
-0.708414 0.372797 1.47611 98 100 56
-0.713964 0.376074 1.50964 140 142 94
-0.452038 0.360236 1.30388 94 94 52
-0.720733 0.381808 1.51213 148 145 83
-0.723662 0.384668 1.5133 96 98 56
-0.721074 0.387914 1.48301 154 158 103
-0.45098 0.367935 1.31212 147 143 79
-0.454128 0.369069 1.28867 149 145 82
-0.71159 0.388949 1.42484 103 103 69
-0.433669 0.396106 1.39997 113 114 65
-0.687196 0.405695 1.40486 108 114 64
-0.426516 0.397199 1.40172 126 122 80
-0.461237 0.394458 1.32208 98 96 53
-0.704889 0.419843 1.45674 102 106 52
-0.428654 0.405739 1.40034 58 66 37
-0.696446 0.421234 1.43001 84 88 48
-0.71244 0.428769 1.47948 122 122 72
-0.43304 0.411486 1.40135 102 98 58
-0.432556 0.413954 1.39718 98 102 52
-0.461998 0.407771 1.32132 104 82 45
-0.698532 0.420067 1.33123 78 68 41
-0.537463 0.40712 1.25465 152 145 99
-0.701678 0.426957 1.35021 95 100 56
-0.459596 0.421054 1.35373 144 137 92
-0.457844 0.420896 1.34692 106 105 86
-0.434718 0.431325 1.42567 138 132 94
-0.718874 0.443348 1.43546 138 132 87
-0.43345 0.433358 1.42737 69 76 36
-0.4379 0.434182 1.42672 152 144 100
-0.477865 0.422665 1.31142 90 84 72
-0.463468 0.421711 1.30998 126 122 94
-0.690694 0.437492 1.36018 106 108 75
-0.67901 0.435381 1.33526 156 138 118
-0.500308 0.431421 1.28972 102 84 65
-0.50434 0.432226 1.28949 106 108 75
-0.501846 0.433335 1.29495 159 150 125
-0.505886 0.434368 1.29031 120 92 74
-0.698396 0.463776 1.40053 160 151 126
-0.432835 0.467381 1.45357 64 50 24
-0.433021 0.469524 1.4484 142 119 98
-0.439232 0.469412 1.42906 95 77 44
-0.501996 0.453678 1.31653 157 148 123
-0.662734 0.468423 1.33852 70 40 26
-0.446421 0.496291 1.44973 152 122 100
-0.466241 0.496049 1.39611 138 104 78
-0.509078 0.489749 1.33942 80 58 30
-0.511887 0.491115 1.33686 44 32 15
-0.4675 0.500323 1.38427 53 38 22
-0.613503 0.504025 1.33651 91 92 69
-0.611578 0.504061 1.3281 152 142 117
-0.450069 0.535974 1.47705 124 120 98
-0.653951 0.520966 1.37414 113 107 84
-0.562631 0.509365 1.32779 160 151 131
-0.653014 0.527914 1.38305 130 129 110
-0.468727 0.528995 1.41321 114 86 70
-0.560225 0.557103 1.36019 155 146 122
-0.636181 0.588339 1.4254 68 28 18
-0.638189 0.600254 1.45421 158 150 130
-0.603569 0.585297 1.38603 64 24 16
-0.600028 0.58881 1.39536 65 27 17
-0.596484 0.625192 1.4168 152 140 124
-0.538692 0.205224 1.46931 148 140 111
-0.547408 0.250382 1.4418 154 146 116
-0.802256 0.257949 1.53765 154 147 113
-0.525414 0.260057 1.43333 156 162 108
-0.510329 0.270226 1.31021 151 158 107
-0.674912 0.283318 1.32029 160 160 101
-0.395972 0.28011 1.34958 160 160 102
-0.684329 0.291763 1.4128 134 132 83
-0.658324 0.301349 1.34392 157 161 106
-0.6685 0.301755 1.37295 156 156 96
-0.733603 0.303915 1.48004 120 116 76
-0.735129 0.3031 1.51728 114 112 70
-0.679167 0.305586 1.38926 156 158 102
-0.407616 0.305192 1.39036 150 152 95
-0.644135 0.318043 1.34603 152 152 92
-0.54103 0.317033 1.4503 152 146 114
-0.441077 0.316461 1.38904 134 135 85
-0.436007 0.316652 1.49002 151 154 96
-0.541744 0.320784 1.42142 114 116 62
-0.528211 0.32061 1.508 149 140 108
-0.526535 0.322662 1.53357 109 112 70
-0.448523 0.320807 1.46915 150 146 86
-0.683687 0.326576 1.30283 151 148 88
-0.468135 0.33302 1.47356 106 108 64
-0.469766 0.335038 1.53478 154 154 96
-0.755259 0.341918 1.42598 154 154 98
-0.737203 0.341638 1.41069 150 148 88
-0.482707 0.336535 1.53526 140 139 82
-0.440428 0.340252 1.42384 130 130 80
-0.447295 0.348498 1.46047 152 150 90
-0.45264 0.349981 1.39332 156 156 98
-0.75115 0.363131 1.39955 152 150 90
-0.72433 0.388793 1.49697 102 103 56
-0.43136 0.379362 1.39414 126 110 65
-0.428393 0.398813 1.41975 154 152 92
-0.691423 0.4032 1.3343 114 110 68
-0.712227 0.415067 1.42606 150 150 94
-0.706151 0.420505 1.46177 104 103 60
-0.613044 0.401825 1.30444 104 109 56
-0.708927 0.42565 1.44321 79 74 41
-0.69945 0.423869 1.4191 104 106 62
-0.680881 0.417205 1.35216 144 140 76
-0.433019 0.420437 1.43609 113 112 76
-0.698417 0.429948 1.42804 105 110 60
-0.451325 0.41362 1.3425 56 66 26
-0.539134 0.410005 1.27413 136 132 70
-0.453773 0.416255 1.34393 84 88 58
-0.455529 0.41948 1.34128 102 106 53
-0.431523 0.431445 1.4382 53 63 34
-0.713924 0.447898 1.43608 118 114 87
-0.694646 0.438975 1.37402 155 148 104
-0.479275 0.42284 1.30233 149 142 96
-0.681591 0.436739 1.33689 108 110 86
-0.503278 0.430872 1.29836 150 142 100
-0.504128 0.42993 1.2737 142 136 96
-0.506426 0.435468 1.2978 36 50 27
-0.682673 0.467205 1.40401 100 100 64
-0.506387 0.469761 1.32823 160 150 125
-0.510769 0.510229 1.3622 156 148 120
-0.511981 0.53322 1.36635 122 104 80
-0.51279 0.537118 1.36709 105 106 74
-0.64551 0.555118 1.40123 88 64 42
-0.558566 0.560317 1.35274 107 82 66
-0.590366 0.620599 1.42101 67 54 42
-0.689934 0.252094 1.42643 148 132 128
-0.682329 0.255936 1.40135 154 142 131
-0.740321 0.286268 1.49903 156 144 136
-0.55905 0.288897 1.46651 158 148 134
-0.669123 0.302014 1.37416 110 90 58
-0.739625 0.303883 1.50281 126 104 68
-0.743735 0.302205 1.55235 110 90 58
-0.66983 0.306757 1.34082 156 156 99
-0.419635 0.30275 1.38861 122 96 62
-0.582747 0.314591 1.39865 156 150 118
-0.529497 0.319962 1.54581 58 37 16
-0.448665 0.317334 1.47555 154 146 116
-0.527168 0.322874 1.56686 157 152 118
-0.447414 0.32034 1.47425 158 160 102
-0.458077 0.324954 1.47714 157 156 98
-0.469302 0.334092 1.52496 158 158 100
-0.742276 0.342067 1.42936 158 160 104
-0.610273 0.358773 1.41026 158 160 104
-0.450386 0.368576 1.32939 144 143 90
-0.451701 0.376617 1.36758 154 158 102
-0.433544 0.377501 1.36595 154 155 98
-0.609314 0.399691 1.31758 156 156 98
-0.429667 0.404849 1.39908 152 152 92
-0.610405 0.399777 1.28933 154 156 98
-0.707422 0.424223 1.43552 114 116 68
-0.430633 0.416032 1.40961 108 92 51
-0.453551 0.415017 1.33703 56 61 42
-0.431374 0.424232 1.41111 150 148 88
-0.712177 0.434342 1.40185 58 66 25
-0.460617 0.419562 1.33788 83 82 48
-0.456122 0.423113 1.37826 96 95 52
-0.710408 0.438623 1.40431 57 58 28
-0.480289 0.420011 1.30934 104 108 60
-0.700801 0.439071 1.38275 142 143 91
-0.709367 0.450112 1.44094 132 132 78
-0.682042 0.437763 1.35015 143 140 76
-0.50192 0.434677 1.31082 65 76 34
-0.505952 0.432761 1.28202 98 102 50
-0.686908 0.465594 1.40549 152 146 102
-0.565045 0.454051 1.29527 108 107 80
-0.667354 0.471502 1.35563 152 145 98
-0.616648 0.46362 1.30083 152 146 100
-0.443366 0.486608 1.42283 148 142 96
-0.468258 0.48117 1.38499 150 142 98
-0.66825 0.490606 1.37322 150 145 102
-0.685954 0.50436 1.41768 86 88 38
-0.466769 0.494018 1.3828 103 104 80
-0.680001 0.533344 1.44856 68 52 29
-0.613709 0.504246 1.33654 72 67 36
-0.560687 0.565035 1.3711 115 88 72
-0.557262 0.58999 1.3781 158 150 126
-0.525037 0.624841 1.45271 144 120 104
-0.685578 0.254519 1.41012 160 150 132
-0.800488 0.260947 1.53322 160 150 132
-0.713278 0.274034 1.46678 150 140 114
-0.665524 0.277075 1.43252 116 81 62
-0.521001 0.282063 1.31303 112 88 77
-0.396059 0.281163 1.34942 102 96 70
-0.721446 0.289515 1.42299 50 46 18
-0.682763 0.291298 1.40714 148 137 120
-0.558339 0.295714 1.39806 124 95 82
-0.655647 0.301695 1.33171 148 136 114
-0.738048 0.303354 1.5298 154 144 129
-0.671555 0.306584 1.34802 152 139 132
-0.712761 0.307182 1.50872 150 138 124
-0.529664 0.319668 1.52937 153 142 124
-0.517332 0.322815 1.55338 114 88 79
-0.456546 0.323243 1.4495 152 138 130
-0.669467 0.328891 1.40656 124 113 94
-0.659501 0.331573 1.34145 164 153 142
-0.486215 0.333664 1.50666 109 76 70
-0.439213 0.340281 1.42903 152 148 118
-0.619435 0.350877 1.41876 155 142 135
-0.450332 0.345718 1.40511 120 89 81
-0.57861 0.350662 1.4123 158 147 140
-0.451666 0.351266 1.42419 159 154 122
-0.439841 0.347109 1.29803 115 84 78
-0.708898 0.374664 1.48352 149 141 110
-0.724305 0.390043 1.49209 155 148 118
-0.726481 0.391181 1.42267 62 66 32
-0.429486 0.381324 1.42112 159 160 103
-0.428866 0.398889 1.41545 158 159 102
-0.423758 0.401081 1.42546 149 140 108
-0.4611 0.39321 1.32387 150 140 107
-0.608218 0.397944 1.30492 153 156 98
-0.428228 0.403744 1.40555 120 117 94
-0.695018 0.408319 1.35745 152 150 90
-0.701854 0.418187 1.44225 112 120 71
-0.613483 0.402721 1.30824 150 148 88
-0.73148 0.423816 1.41681 154 152 93
-0.643095 0.411079 1.31793 150 148 88
-0.460835 0.407896 1.32547 154 158 103
-0.430886 0.41764 1.4163 104 110 70
-0.698365 0.421016 1.32991 98 96 53
-0.453228 0.419942 1.36725 152 153 96
-0.697431 0.427109 1.34518 115 112 66
-0.714526 0.441045 1.40125 151 148 88
-0.706647 0.441825 1.40347 114 110 69
-0.434017 0.434438 1.42221 152 150 94
-0.702321 0.442971 1.40293 110 112 54
-0.614341 0.42275 1.28084 148 145 83
-0.466355 0.437451 1.37812 78 80 42
-0.564902 0.425565 1.24666 146 144 92
-0.438985 0.450181 1.42936 140 134 82
-0.568481 0.431633 1.26728 144 146 96
-0.506928 0.435202 1.30018 98 97 54
-0.699957 0.464189 1.40657 108 105 64
-0.686952 0.466164 1.40474 101 99 57
-0.66632 0.452017 1.32587 152 154 97
-0.462822 0.460552 1.38232 144 142 86
-0.465964 0.462397 1.37433 102 104 62
-0.567781 0.45615 1.29121 148 146 84
-0.465325 0.478384 1.38207 129 124 84
-0.468698 0.481671 1.38346 106 106 64
-0.654889 0.48293 1.32812 40 39 16
-0.508378 0.483823 1.32147 108 110 59
-0.647357 0.49403 1.34236 112 110 78
-0.612035 0.487788 1.32073 137 132 72
-0.466743 0.502163 1.40031 102 105 53
-0.564287 0.488471 1.31479 100 102 63
-0.692118 0.547702 1.50887 88 90 53
-0.651302 0.526849 1.38278 140 134 82
-0.662739 0.556693 1.42745 160 150 124
-0.509747 0.536563 1.36736 92 96 58
-0.596171 0.5815 1.37471 30 37 20
-0.558105 0.589115 1.38935 104 106 74
-0.685584 0.254788 1.41018 156 146 120
-0.717227 0.27325 1.47753 68 72 50
-0.661622 0.27798 1.40939 163 152 136
-0.398297 0.28174 1.34047 46 56 28
-0.559626 0.295111 1.39703 112 86 66
-0.732855 0.304663 1.48509 116 91 78
-0.727731 0.303586 1.48628 158 148 124
-0.682367 0.309666 1.36963 110 96 78
-0.712027 0.313853 1.46604 159 150 134
-0.540469 0.315352 1.46214 96 94 71
-0.646875 0.319507 1.35848 126 109 82
-0.447837 0.317656 1.5288 155 146 126
-0.693034 0.33888 1.50852 97 94 70
-0.469545 0.33415 1.52929 110 86 72
-0.73186 0.33895 1.33833 116 89 78
-0.452747 0.350231 1.40774 106 76 59
-0.751386 0.362361 1.39032 63 40 20
-0.710069 0.369279 1.42476 120 92 68
-0.712095 0.374862 1.49656 114 106 86
-0.736301 0.371952 1.36113 158 147 139
-0.4399 0.371446 1.397 158 146 128
-0.715168 0.389185 1.44069 118 88 79
-0.45194 0.376027 1.36015 124 91 80
-0.435993 0.393265 1.36063 132 105 92
-0.470472 0.391406 1.31415 104 78 70
-0.709134 0.423441 1.44055 158 150 118
-0.430505 0.411759 1.41683 156 149 118
-0.51349 0.414296 1.28813 55 64 26
-0.457802 0.422576 1.3659 124 130 79
-0.432981 0.428831 1.42004 93 98 53
-0.713995 0.440245 1.39805 156 160 103
-0.490399 0.430498 1.31736 106 105 63
-0.510163 0.429759 1.28829 151 150 92
-0.50724 0.431853 1.28454 149 146 84
-0.436175 0.466872 1.42726 130 127 76
-0.467084 0.463358 1.37337 127 122 72
-0.507577 0.468809 1.32866 148 144 82
-0.612817 0.479833 1.30083 104 90 48
-0.693963 0.51977 1.46023 150 154 104
-0.467598 0.496958 1.3963 146 142 78
-0.509724 0.468284 1.24415 140 138 84
-0.654816 0.532341 1.40271 146 142 81
-0.677361 0.578123 1.50277 140 136 78
-0.587091 0.616936 1.41006 60 47 32
-0.518802 0.135656 1.58344 160 152 130
-0.489958 0.247467 1.30938 144 118 90
-0.394546 0.280754 1.37144 155 126 104
-0.72393 0.303842 1.4705 157 148 122
-0.731492 0.305024 1.47493 160 150 125
-0.586342 0.312559 1.43897 156 128 107
-0.740938 0.326925 1.42339 62 29 14
-0.448549 0.318979 1.52849 158 148 124
-0.471419 0.332778 1.44747 92 88 64
-0.758296 0.342395 1.48844 164 154 136
-0.678071 0.343154 1.36129 144 112 86
-0.880208 0.35393 1.4512 162 152 136
-0.618691 0.349081 1.39588 114 114 89
-0.45695 0.345003 1.32058 65 48 26
-0.762654 0.364652 1.42287 102 101 69
-0.712475 0.374352 1.48338 152 142 123
-0.708768 0.387524 1.41388 160 151 137
-0.673801 0.401578 1.35486 150 140 120
-0.42077 0.406294 1.46297 118 92 80
-0.616424 0.402484 1.34688 58 30 12
-0.734839 0.424355 1.49829 159 149 138
-0.713957 0.425437 1.49464 107 82 70
-0.626846 0.424138 1.3006 152 144 112
-0.502015 0.428696 1.28689 155 149 114
-0.512181 0.430505 1.29069 160 156 126
-0.707637 0.470063 1.43322 52 58 30
-0.505844 0.467853 1.24779 104 110 71
-0.561029 0.481209 1.27873 148 146 84
-0.636455 0.546763 1.49831 146 142 80
-0.595939 0.608034 1.3947 128 124 68
-0.526119 0.25357 1.46847 84 76 44
-0.709995 0.269918 1.40889 99 80 44
-0.700187 0.276761 1.4086 144 139 96
-0.745556 0.285901 1.50352 64 48 26
-0.560284 0.294646 1.38867 66 48 24
-0.723742 0.303241 1.41826 48 46 22
-0.423006 0.302133 1.38586 134 108 84
-0.734454 0.315513 1.42278 157 148 122
-0.685212 0.313821 1.34551 121 123 97
-0.536894 0.315748 1.39394 87 64 46
-0.450867 0.317871 1.47747 143 116 92
-0.443294 0.317642 1.4775 70 39 20
-0.693368 0.338424 1.50213 150 119 90
-0.47065 0.332415 1.47644 143 120 103
-0.73954 0.338776 1.35744 160 150 124
-0.740593 0.339994 1.42903 70 52 31
-0.621957 0.349003 1.40846 108 110 82
-0.764358 0.366717 1.43578 114 89 70
-0.722343 0.377077 1.51569 122 95 78
-0.440238 0.371908 1.39796 38 29 12
-0.73428 0.394024 1.52161 112 111 85
-0.431177 0.378155 1.39319 110 87 68
-0.451207 0.380845 1.40363 158 149 126
-0.440582 0.38156 1.42077 106 106 75
-0.431698 0.399275 1.40724 112 87 71
-0.702517 0.408569 1.36035 120 94 80
-0.707238 0.41983 1.43113 120 92 72
-0.700527 0.418666 1.43397 108 84 72
-0.695532 0.425951 1.43454 158 148 131
-0.434998 0.42841 1.41281 142 128 106
-0.705661 0.436592 1.36599 108 75 58
-0.651393 0.444864 1.3587 150 138 123
-0.712392 0.470561 1.4465 94 98 57
-0.69457 0.472348 1.38929 97 89 52
-0.513195 0.476318 1.34574 144 144 112
-0.63355 0.482567 1.31457 160 158 124
-0.515615 0.555872 1.35949 154 150 120
-0.562856 0.569545 1.39375 127 116 102
-0.607763 0.580606 1.37807 148 139 104
-0.558675 0.58633 1.37386 154 148 114
-0.765035 0.257155 1.47943 148 146 84
-0.523374 0.251432 1.44954 150 150 90
-0.785638 0.263191 1.48566 121 106 74
-0.401011 0.276438 1.35152 99 93 52
-0.71463 0.290601 1.38135 46 42 24
-0.56418 0.292154 1.45714 112 100 56
-0.731452 0.303819 1.48648 139 136 74
-0.669243 0.308714 1.30257 114 116 70
-0.695637 0.313395 1.38555 84 86 52
-0.762524 0.326545 1.49771 80 78 48
-0.453017 0.318657 1.45831 110 96 60
-0.461796 0.321906 1.45897 118 100 64
-0.698775 0.344813 1.4852 117 95 55
-0.440018 0.338542 1.42658 121 120 86
-0.618793 0.346877 1.38095 150 142 108
-0.715978 0.373875 1.49437 95 66 40
-0.425991 0.384481 1.47212 146 128 94
-0.72762 0.426202 1.50768 110 109 73
-0.687205 0.422898 1.39645 112 114 83
-0.701737 0.430242 1.34861 140 134 95
-0.670871 0.436114 1.31044 150 136 120
-0.516047 0.432058 1.30366 122 94 71
-0.704439 0.4644 1.41216 116 87 72
-0.675425 0.525855 1.41921 53 32 17
-0.672607 0.537943 1.42112 112 89 74
-0.564154 0.528828 1.34444 134 124 82
-0.505942 0.543995 1.40435 152 137 124
-0.63704 0.606849 1.42935 154 153 112
-0.580568 0.243728 1.31427 132 132 82
-0.524259 0.267109 1.36292 110 114 74
-0.6481 0.31937 1.35969 150 146 86
-0.614465 0.368309 1.39062 126 122 68
-0.454482 0.377182 1.33856 56 62 30
-0.457366 0.385137 1.35542 96 96 56
-0.672778 0.394862 1.25782 146 142 80
-0.67585 0.397842 1.26666 142 138 76
-0.636028 0.432707 1.27518 102 78 46
-0.660036 0.44712 1.31231 105 106 74
-0.693417 0.484416 1.40954 164 154 134
-0.6173 0.46403 1.30609 157 149 120
-0.506272 0.469391 1.3245 98 74 51
-0.503341 0.46954 1.32493 114 90 66
-0.444224 0.493912 1.43804 108 107 78
-0.666866 0.490102 1.36711 55 64 36
-0.686414 0.504449 1.41773 62 64 42
-0.446066 0.53184 1.48363 68 69 52
-0.673078 0.525545 1.41555 106 106 88
-0.510539 0.508022 1.3519 153 144 116
-0.509408 0.525217 1.3487 102 98 72
-0.560636 0.522059 1.32351 152 142 115
-0.603994 0.540929 1.34569 95 94 74
-0.471321 0.565839 1.43958 64 60 38
-0.55863 0.560788 1.35312 156 146 129
-0.49825 0.608056 1.4437 108 108 84
-0.52424 0.615776 1.42514 154 143 131
-0.46633 0.226753 1.29394 108 116 68
-0.589251 0.299293 1.27793 153 154 94
-0.421524 0.303977 1.37145 82 88 47
-0.613866 0.368109 1.3871 113 114 57
-0.443387 0.474138 1.42832 55 64 29
-0.563964 0.453748 1.28772 162 154 130
-0.503817 0.468568 1.31912 94 62 40
-0.441701 0.494557 1.46198 54 66 32
-0.56255 0.487112 1.29886 154 146 118
-0.44707 0.529226 1.47449 125 120 104
-0.453966 0.520698 1.41624 94 84 61
-0.510154 0.525966 1.35331 157 148 126
-0.560758 0.521248 1.32098 154 144 118
-0.565081 0.537257 1.35012 104 104 75
-0.599783 0.581446 1.38079 104 100 84
-0.489452 0.248746 1.30144 150 144 112
-0.524503 0.262705 1.39733 108 104 88
-0.589134 0.299387 1.27336 154 154 96
-0.70913 0.340783 1.35612 153 150 88
-0.708734 0.349334 1.31972 152 149 88
-0.450677 0.373005 1.34631 112 108 67
-0.541022 0.399348 1.31023 113 113 70
-0.703464 0.427204 1.35436 144 140 80
-0.451548 0.42601 1.40219 82 80 39
-0.438881 0.43329 1.41703 102 106 55
-0.537909 0.419906 1.28641 98 105 58
-0.682069 0.435095 1.33844 90 94 46
-0.503947 0.433315 1.29847 81 72 41
-0.564695 0.439952 1.28301 148 140 107
-0.43315 0.471283 1.4579 66 50 28
-0.440955 0.470654 1.43159 57 62 26
-0.442565 0.475413 1.43907 107 107 77
-0.563622 0.472048 1.30075 155 148 120
-0.451367 0.489921 1.40308 85 70 38
-0.450367 0.53643 1.4782 118 114 90
-0.559253 0.518545 1.30882 102 103 72
-0.452834 0.567682 1.4997 102 72 54
-0.560969 0.530168 1.33272 158 148 124
-0.475139 0.596224 1.45792 146 134 112
-0.59913 0.588269 1.39665 133 116 99
-0.55718 0.584391 1.37619 108 84 75
-0.499806 0.258232 1.31846 94 100 58
-0.573539 0.269629 1.31872 156 153 118
-0.571506 0.273939 1.30687 111 91 58
-0.533487 0.293531 1.33779 100 102 60
-0.648599 0.320149 1.3604 152 146 112
-0.713466 0.35892 1.28883 156 148 114
-0.630773 0.404761 1.29531 150 150 88
-0.537372 0.42168 1.28414 142 142 90
-0.442216 0.478718 1.45739 102 107 60
-0.673088 0.468145 1.33684 109 110 74
-0.690215 0.481486 1.39089 154 148 104
-0.441533 0.491847 1.44813 104 107 60
-0.664381 0.486327 1.3523 56 66 34
-0.5119 0.490922 1.34043 141 134 92
-0.44943 0.522142 1.44042 108 104 72
-0.453651 0.527653 1.43895 67 72 44
-0.512091 0.536988 1.36913 116 117 90
-0.560045 0.55833 1.3647 158 148 128
-0.559929 0.564061 1.36856 154 146 122
-0.481782 0.602668 1.44954 144 135 110
-0.57413 0.267241 1.32258 86 92 56
-0.521318 0.280305 1.32853 113 110 92
-0.707875 0.340564 1.35065 106 84 48
-0.579718 0.351227 1.40355 155 149 113
-0.460253 0.394799 1.33606 98 96 84
-0.642273 0.409512 1.30846 150 142 107
-0.685789 0.418568 1.28849 150 148 90
-0.691093 0.432134 1.33285 141 139 83
-0.537653 0.420484 1.28537 146 145 91
-0.667722 0.435762 1.30183 137 133 78
-0.657152 0.444782 1.29588 155 148 104
-0.442043 0.478811 1.45614 53 54 26
-0.510354 0.470532 1.32134 152 144 106
-0.505329 0.488648 1.34378 118 108 78
-0.510652 0.508848 1.35657 148 142 95
-0.451754 0.535967 1.4726 111 108 66
-0.449723 0.549241 1.46893 112 90 52
-0.476775 0.595428 1.44769 98 100 68
-0.481075 0.607442 1.46889 127 118 81
-0.581353 0.240288 1.31903 112 106 78
-0.726836 0.338996 1.31883 152 145 101
-0.426182 0.355674 1.4076 73 79 41
-0.431342 0.378807 1.39898 116 115 86
-0.445023 0.388451 1.3722 113 107 76
-0.67615 0.402928 1.28244 118 93 51
-0.676721 0.41438 1.3364 145 135 93
-0.504426 0.408955 1.30865 123 112 91
-0.45113 0.422486 1.40099 72 60 51
-0.702913 0.434026 1.35225 136 126 96
-0.507517 0.467631 1.32055 143 135 91
-0.511798 0.471975 1.32422 152 147 104
-0.463562 0.498362 1.38727 101 104 55
-0.448111 0.527716 1.46533 117 115 76
-0.488206 0.61003 1.44929 136 126 92
-0.582133 0.236315 1.33027 108 106 62
-0.710024 0.340565 1.3527 156 150 106
-0.682888 0.35812 1.31464 101 102 52
-0.691505 0.406951 1.25643 112 102 58
-0.461845 0.40798 1.32873 38 16 9
-0.684682 0.417887 1.28122 80 84 45
-0.681245 0.422083 1.28397 104 84 45
-0.461261 0.425668 1.36423 94 84 75
-0.670147 0.43522 1.30432 144 137 105
-0.435909 0.471666 1.45312 110 112 86
-0.686774 0.478481 1.37436 152 141 114
-0.691301 0.49322 1.41254 111 86 69
-0.449096 0.504096 1.46736 48 55 24
-0.44964 0.521968 1.44071 126 122 110
-0.513685 0.522807 1.32278 158 148 128
-0.507603 0.529464 1.34052 134 122 96
-0.602424 0.618894 1.42882 155 144 134
-0.58274 0.234101 1.33861 113 113 72
-0.656265 0.329044 1.33179 150 147 88
-0.713418 0.335932 1.32849 149 145 83
-0.581221 0.352767 1.39348 148 145 82
-0.595699 0.3754 1.39259 146 141 78
-0.577682 0.372843 1.35972 149 145 83
-0.689823 0.402601 1.30281 146 142 79
-0.685637 0.41835 1.28762 100 102 60
-0.504969 0.445525 1.29513 148 121 94
-0.437106 0.475476 1.44856 66 74 44
-0.440522 0.495239 1.47344 42 54 26
-0.51577 0.556115 1.36487 108 85 64
-0.453061 0.386381 1.37019 132 118 70
-0.437961 0.467231 1.43069 125 106 91
-0.453054 0.567154 1.49718 41 42 20
-0.563511 0.533182 1.33499 114 80 68
-0.515333 0.567037 1.38098 114 140 130
