ply
format ascii 1.0
element vertex 1255
property float x
property float y
property float z
property uchar red
property uchar green
property uchar blue
end_header
-0.407583 0.264441 0.398037 142 119 74
-0.379308 0.275914 0.405064 144 142 86
-0.368181 0.295822 0.388508 93 86 64
-0.424634 0.300251 0.418407 110 101 55
-0.301982 0.35662 0.336096 116 94 86
-0.302651 0.360344 0.335275 135 116 82
-0.347494 0.468367 0.38835 155 144 128
-0.352614 0.473216 0.397542 98 94 81
-0.367518 0.295305 0.393688 131 115 91
-0.297518 0.355465 0.342153 100 74 66
-0.292689 0.355321 0.343582 112 86 77
-0.300214 0.358853 0.330793 92 72 58
-0.304752 0.440682 0.378161 106 54 34
-0.347665 0.339373 0.385528 58 58 30
-0.35373 0.453121 0.380913 102 101 80
-0.327229 0.456303 0.378924 143 129 113
-0.429432 0.333967 0.390801 130 127 64
-0.304005 0.440642 0.376465 76 30 19
-0.479847 0.194006 0.404871 116 96 66
-0.391001 0.280641 0.393294 74 75 34
-0.35843 0.325603 0.389989 110 102 60
-0.349976 0.450889 0.378253 97 96 82
-0.428179 0.315343 0.402238 94 96 47
-0.315108 0.466939 0.387674 138 117 113
-0.428642 0.315703 0.400448 149 143 96
-0.300686 0.442005 0.379576 111 64 42
-0.426567 0.307465 0.410105 147 142 79
-0.309072 0.443384 0.37781 81 44 30
-0.252941 0.301744 0.368171 124 130 91
-0.487688 0.181513 0.407257 152 150 90
-0.467727 0.19851 0.409239 158 158 102
-0.29515 0.458594 0.395658 58 31 18
-0.31077 0.465899 0.391647 136 118 96
-0.250789 0.301451 0.370294 110 94 65
-0.378302 0.422097 0.383918 151 143 104
-0.306819 0.442451 0.378469 60 32 18
-0.241888 0.284967 0.362332 98 87 68
-0.457492 0.222915 0.39826 78 77 48
-0.310628 0.361122 0.329355 148 118 94
-0.294716 0.370463 0.343536 134 114 79
-0.317695 0.391694 0.346285 120 100 66
-0.301634 0.410529 0.361659 120 94 56
-0.353897 0.430865 0.365125 142 134 95
-0.302151 0.443595 0.379036 124 93 74
-0.231065 0.225427 0.288721 154 155 98
-0.235031 0.224306 0.298848 152 153 94
-0.236581 0.224708 0.299179 102 105 70
-0.245359 0.228358 0.302493 102 100 58
-0.387178 0.268616 0.40486 88 82 49
-0.390938 0.303695 0.413224 146 141 78
-0.446159 0.27487 0.453006 147 139 96
-0.329092 0.422786 0.359924 121 92 55
-0.29156 0.267973 0.33356 97 98 72
-0.3561 0.272203 0.370833 104 84 53
-0.229955 0.219628 0.286096 158 158 102
-0.235883 0.225283 0.289772 69 75 25
-0.443639 0.218526 0.404754 112 88 52
-0.260007 0.24241 0.307763 86 88 59
-0.355795 0.349777 0.352655 153 156 118
-0.302834 0.357974 0.340196 42 22 12
-0.297851 0.359917 0.33725 96 97 50
-0.373577 0.359651 0.348168 38 24 14
-0.297547 0.367382 0.333124 82 76 44
-0.301219 0.366866 0.330458 42 42 20
-0.300463 0.366774 0.328149 92 92 50
-0.333171 0.365284 0.328388 104 104 72
-0.361052 0.389841 0.342609 57 23 16
-0.340218 0.396972 0.338681 154 145 125
-0.331296 0.4026 0.345325 86 38 22
-0.330454 0.411882 0.350261 130 101 82
-0.379748 0.423616 0.382705 132 100 88
-0.355761 0.419197 0.360207 157 148 130
-0.303082 0.424712 0.367181 147 118 100
-0.330024 0.420662 0.355651 79 64 54
-0.329644 0.425312 0.357909 152 142 125
-0.302817 0.441142 0.380295 108 104 89
-0.34906 0.447786 0.375489 116 94 61
-0.304543 0.457412 0.389131 140 119 79
-0.337482 0.473121 0.394269 156 156 113
-0.358145 0.334086 0.369917 50 54 28
-0.433259 0.334087 0.395268 102 86 51
-0.291707 0.354032 0.348213 156 150 110
-0.293045 0.353661 0.338494 63 36 20
-0.300271 0.360494 0.337298 152 146 106
-0.298228 0.364985 0.332528 134 120 98
-0.301296 0.367107 0.331317 108 107 64
-0.29871 0.367218 0.333996 132 128 98
-0.298208 0.369263 0.337622 110 108 85
-0.333844 0.383594 0.335057 158 148 128
-0.388338 0.39307 0.368842 152 142 122
-0.397551 0.394197 0.374771 94 89 78
-0.340269 0.396834 0.33906 84 72 57
-0.387262 0.401841 0.371305 95 92 68
-0.359542 0.399142 0.34858 110 84 78
-0.331626 0.400486 0.343454 88 82 72
-0.331199 0.402432 0.345785 150 142 121
-0.35804 0.408343 0.351995 107 84 75
-0.357965 0.409381 0.353068 85 80 74
-0.329272 0.41365 0.34987 156 147 130
-0.381049 0.419914 0.380007 156 148 132
-0.329804 0.420926 0.356048 144 146 92
-0.344631 0.426776 0.358999 158 154 112
-0.328529 0.44003 0.365406 48 52 26
-0.350551 0.447732 0.375237 98 90 53
-0.342698 0.470709 0.392675 154 151 108
-0.327082 0.473132 0.394461 155 153 112
-0.487816 0.180957 0.410608 112 91 58
-0.235792 0.224881 0.289288 149 143 99
-0.23296 0.224447 0.289514 94 68 46
-0.236103 0.224963 0.291869 110 86 49
-0.232017 0.22604 0.287345 119 88 51
-0.236091 0.225057 0.295361 112 93 58
-0.243042 0.22757 0.306832 116 116 98
-0.265187 0.244423 0.317208 112 90 54
-0.372794 0.331427 0.363767 70 82 50
-0.355403 0.349478 0.351136 110 87 53
-0.319151 0.35231 0.326538 156 152 114
-0.300763 0.357488 0.339336 156 150 115
-0.303229 0.358005 0.339985 116 101 69
-0.373882 0.359357 0.351577 148 142 98
-0.300668 0.360331 0.336687 73 56 34
-0.301871 0.367535 0.326571 72 28 20
-0.332551 0.381542 0.332881 148 140 106
-0.360974 0.388723 0.34441 98 92 78
-0.388475 0.3926 0.365495 92 91 52
-0.332017 0.391721 0.3393 154 152 94
-0.359661 0.398747 0.346571 95 97 60
-0.331361 0.40074 0.344771 58 70 39
-0.329063 0.413456 0.349934 40 40 23
-0.378888 0.420329 0.37807 95 98 62
-0.380127 0.422469 0.380312 146 144 106
-0.356165 0.418662 0.358974 88 90 57
-0.353702 0.43133 0.365876 136 134 76
-0.375331 0.436481 0.387567 90 86 57
-0.35322 0.434371 0.367797 105 104 74
-0.354816 0.435652 0.367972 101 104 55
-0.303288 0.44373 0.381195 93 92 54
-0.367389 0.454068 0.394395 118 96 56
-0.368786 0.454146 0.394512 153 148 102
-0.351983 0.452948 0.379232 93 94 70
-0.326805 0.454445 0.377648 90 88 49
-0.342244 0.471055 0.39338 44 40 19
-0.345143 0.470615 0.391116 44 52 33
-0.334927 0.47465 0.389414 118 117 80
-0.230164 0.219934 0.28527 94 82 42
-0.448937 0.223501 0.401493 142 124 86
-0.258253 0.241376 0.309317 100 103 54
-0.428916 0.333574 0.388021 126 121 92
-0.42451 0.334585 0.39525 157 146 124
-0.321046 0.349757 0.334496 139 139 100
-0.319014 0.35328 0.328794 156 152 118
-0.300289 0.358099 0.335792 154 150 118
-0.298011 0.359249 0.33665 143 134 103
-0.301466 0.360162 0.336083 114 109 102
-0.29794 0.366965 0.331508 148 137 106
-0.331839 0.382513 0.337186 109 114 76
-0.33064 0.382733 0.333601 153 158 102
-0.387344 0.401166 0.370186 135 116 76
-0.331309 0.401477 0.345003 108 100 62
-0.332113 0.414515 0.353978 102 94 60
-0.356192 0.418462 0.358782 110 112 74
-0.355653 0.435141 0.366103 144 140 78
-0.34959 0.468101 0.391539 78 65 48
-0.352578 0.246193 0.355653 154 144 122
-0.318856 0.353189 0.329587 160 150 140
-0.370575 0.354865 0.344829 144 132 102
-0.300696 0.357498 0.340171 136 116 112
-0.298747 0.358503 0.334162 154 142 133
-0.292332 0.368479 0.347344 150 146 105
-0.303721 0.367181 0.326746 108 112 68
-0.335431 0.382623 0.333159 152 156 99
-0.359732 0.398953 0.35 47 51 29
-0.358165 0.409094 0.354055 74 78 42
-0.35361 0.43356 0.367317 149 149 90
-0.304969 0.44064 0.374806 111 125 82
-0.306635 0.442284 0.378694 134 130 74
-0.361883 0.310078 0.369484 150 146 112
-0.425641 0.320648 0.382752 78 32 21
-0.43395 0.334264 0.391842 92 88 64
-0.291716 0.352556 0.346644 116 91 81
-0.297704 0.359045 0.338093 147 124 84
-0.305803 0.359887 0.335325 147 149 110
-0.298935 0.359476 0.333924 64 68 46
-0.305255 0.36743 0.325182 142 140 86
-0.361276 0.388804 0.342101 114 92 56
-0.360101 0.398684 0.348891 108 82 44
-0.359038 0.409453 0.354561 112 90 55
-0.354319 0.432785 0.366968 92 89 74
-0.353865 0.247665 0.3463 106 84 66
-0.425427 0.319438 0.383232 93 88 64
-0.300839 0.36074 0.34048 110 108 66
-0.330244 0.382303 0.332287 114 90 51
-0.361871 0.388279 0.341638 36 34 22
-0.388147 0.400891 0.3713 50 22 12
-0.358726 0.409625 0.355906 158 149 121
-0.380887 0.421817 0.381611 72 38 29
-0.388763 0.435357 0.397544 84 42 32
-0.299595 0.451187 0.374061 157 126 98
-0.315953 0.467934 0.390244 119 90 70
-0.329234 0.47303 0.389934 158 150 129
-0.354103 0.247575 0.348016 111 86 67
-0.424882 0.318801 0.385945 117 92 62
-0.294554 0.354963 0.351427 120 122 80
-0.328422 0.439446 0.370716 111 118 66
-0.300427 0.360505 0.335415 151 142 114
-0.361986 0.365105 0.33159 58 64 30
-0.331851 0.391934 0.339331 142 130 114
-0.359579 0.399374 0.34836 156 144 137
-0.306098 0.457991 0.389398 119 122 72
-0.362383 0.365065 0.331331 118 87 72
-0.36513 0.37067 0.333026 146 135 119
-0.362508 0.379662 0.337149 158 156 120
-0.361292 0.38777 0.341332 148 141 104
-0.361113 0.389424 0.342686 67 42 21
-0.29471 0.463934 0.403537 146 144 80
-0.35288 0.472444 0.395708 151 150 92
-0.298346 0.358502 0.334482 152 141 124
-0.374925 0.370213 0.332288 145 140 112
-0.362646 0.37973 0.337619 150 144 111
-0.340153 0.397129 0.339541 134 135 76
-0.349967 0.451267 0.379421 133 128 89
-0.326602 0.457188 0.378856 113 114 93
-0.339067 0.470775 0.388048 108 110 54
-0.390093 0.322935 0.308297 120 92 80
-0.298329 0.365077 0.331895 118 122 69
-0.36526 0.370979 0.333446 149 148 92
-0.358376 0.408489 0.350641 113 108 53
-0.327778 0.414338 0.354155 54 60 39
-0.295907 0.463921 0.401673 132 120 79
-0.310811 0.467983 0.391451 99 79 42
-0.335038 0.474013 0.386956 132 106 84
-0.298851 0.359188 0.33403 108 116 70
-0.371781 0.372188 0.339801 150 146 86
-0.362621 0.379752 0.338646 78 81 52
-0.318704 0.353482 0.330904 152 143 126
-0.373948 0.37072 0.333888 118 92 54
-0.291795 0.457644 0.395085 104 84 70
-0.306723 0.356528 0.329267 74 72 42
-0.309115 0.469182 0.397422 30 11 7
-0.372271 0.355004 0.32069 78 80 52
-0.366396 0.358098 0.323365 116 141 47
-0.359667 0.364044 0.332629 76 75 46
-0.362048 0.388131 0.34236 177 103 43
-0.350928 0.469891 0.394751 188 133 51
-0.335274 0.369728 0.323741 124 98 80
-0.344867 0.369725 0.322418 123 96 76
-0.487672 0.181469 0.407658 139 134 95
-0.246052 0.298468 0.372351 112 92 80
-0.253716 0.297672 0.379419 121 102 87
-0.246696 0.298342 0.371276 110 110 82
-0.253992 0.298057 0.378253 55 42 20
-0.25448 0.297005 0.380091 143 138 100
-0.359145 0.325465 0.38615 152 145 106
-0.359418 0.325379 0.385599 72 48 30
-0.35161 0.328388 0.384107 155 146 127
-0.350511 0.449984 0.376643 104 105 86
-0.321908 0.471365 0.392691 108 90 78
-0.392238 0.38101 0.360007 86 63 50
-0.385621 0.379456 0.349372 197 122 98
-0.332453 0.38115 0.333235 78 73 64
-0.332174 0.382331 0.334496 70 62 10
-0.330932 0.383614 0.334974 36 22 106
-0.361531 0.387624 0.340122 82 64 33
-0.294193 0.458398 0.395589 80 112 106
-0.30167 0.459437 0.394774 204 118 84
-0.306486 0.459601 0.388749 64 42 12
-0.33555 0.363988 0.324601 124 121 106
-0.335045 0.369483 0.32437 34 37 35
-0.373464 0.370428 0.333028 202 196 187
-0.385616 0.390162 0.356835 201 70 66
-0.335621 0.363611 0.321382 210 206 200
-0.295073 0.463109 0.4015 84 154 76
-0.361564 0.388412 0.341637 204 204 176
-0.359389 0.398773 0.347938 190 188 160
-0.385865 0.379709 0.350894 108 142 42
-0.301508 0.443178 0.38012 33 34 27
-0.314311 0.465924 0.386867 166 168 158
-0.310136 0.467995 0.392821 165 139 61
-0.327569 0.412625 0.351744 40 79 64
-0.333948 0.364387 0.320482 112 120 80
-0.315134 0.359579 0.320658 98 84 68
-0.312226 0.362206 0.328964 140 117 96
-0.333845 0.364981 0.33099 82 62 48
-0.332822 0.365264 0.3262 158 152 129
-0.312193 0.365338 0.316142 139 112 87
-0.331003 0.366469 0.320698 93 53 34
-0.393992 0.380296 0.357974 70 36 22
-0.397345 0.395223 0.377899 99 72 56
-0.386982 0.402102 0.371451 113 89 78
-0.36009 0.397785 0.345818 157 146 130
-0.381122 0.419483 0.378087 120 107 88
-0.303113 0.444415 0.381729 157 152 120
-0.328613 0.437413 0.364937 158 152 121
-0.335979 0.472145 0.390214 153 154 100
-0.361954 0.354172 0.324148 100 78 42
-0.316068 0.359382 0.318084 134 113 100
-0.312088 0.361859 0.329528 106 104 73
-0.333289 0.364606 0.322864 152 144 116
-0.314014 0.364274 0.31078 76 42 27
-0.385757 0.378888 0.348001 114 99 82
-0.393313 0.382127 0.364514 113 102 78
-0.390939 0.39462 0.370519 129 105 92
-0.381344 0.414416 0.378265 156 150 119
-0.354013 0.430657 0.364277 158 160 102
-0.35139 0.452908 0.378208 122 127 73
-0.348746 0.469358 0.392925 154 153 95
-0.367622 0.357808 0.321353 158 149 130
-0.315144 0.362314 0.312533 146 122 94
-0.332173 0.365122 0.327247 124 100 82
-0.310887 0.366037 0.322317 158 146 136
-0.373616 0.370076 0.330546 158 146 134
-0.39447 0.374544 0.356541 152 140 132
-0.385336 0.379379 0.34996 151 138 126
-0.385583 0.390216 0.357306 158 147 139
-0.391307 0.393958 0.368803 158 156 120
-0.387966 0.39522 0.370038 162 157 123
-0.344371 0.427089 0.359898 106 107 64
-0.303358 0.440661 0.378103 120 120 66
-0.360943 0.355137 0.330226 110 80 61
-0.301912 0.358273 0.323159 152 139 132
-0.335415 0.364633 0.327583 157 152 118
-0.314259 0.364189 0.309694 148 150 94
-0.30404 0.367129 0.32378 110 117 65
-0.302375 0.366866 0.320025 116 116 72
-0.329763 0.368313 0.317581 110 108 85
-0.334783 0.370272 0.326734 150 144 114
-0.328974 0.369903 0.317463 153 156 96
-0.393477 0.381724 0.36645 154 158 103
-0.391395 0.394562 0.372383 134 136 84
-0.331747 0.392254 0.340785 154 154 96
-0.329197 0.425233 0.360146 96 95 52
-0.301604 0.443297 0.379698 104 106 54
-0.374879 0.35876 0.348465 111 103 60
-0.366101 0.359541 0.340948 142 140 104
-0.315189 0.360174 0.32091 120 120 80
-0.314786 0.362853 0.312933 112 120 68
-0.333981 0.364447 0.324224 152 155 98
-0.331082 0.366234 0.323689 109 114 63
-0.33485 0.370411 0.327465 105 107 68
-0.393839 0.381599 0.365368 106 110 67
-0.331261 0.395044 0.35262 66 66 34
-0.345009 0.468082 0.387444 163 153 134
-0.316063 0.359528 0.316258 110 113 62
-0.333734 0.364443 0.327191 152 151 92
-0.331648 0.365898 0.321157 126 122 80
-0.32957 0.369599 0.317233 106 102 74
-0.385854 0.379804 0.352489 86 82 48
-0.336371 0.382698 0.331599 111 110 91
-0.33646 0.392165 0.334786 91 94 50
-0.360908 0.354041 0.328106 144 142 78
-0.313018 0.364027 0.316611 99 101 52
-0.306386 0.367169 0.323973 73 71 51
-0.334301 0.364931 0.313103 31 30 35
-0.373957 0.370389 0.33163 56 68 26
-0.384271 0.404743 0.370772 137 130 92
-0.314807 0.358981 0.318063 122 124 110
-0.384332 0.403023 0.367135 156 143 112
-0.357956 0.409898 0.358763 74 74 44
-0.380767 0.421204 0.384181 106 90 53
-0.267548 0.325571 0.338238 90 92 48
-0.425345 0.344106 0.387461 66 58 36
-0.385775 0.390247 0.357258 156 144 130
-0.428187 0.307111 0.410849 82 84 44
-0.41954 0.34221 0.405588 128 102 74
-0.367042 0.358483 0.327032 60 48 26
-0.354997 0.35343 0.360701 162 156 123
-0.367523 0.358418 0.322488 122 72 40
-0.435545 0.225316 0.406115 154 156 98
-0.371912 0.276303 0.386345 110 114 76
-0.390044 0.281664 0.391969 62 68 36
-0.387388 0.280997 0.39471 102 88 46
-0.422537 0.30206 0.429342 118 124 90
-0.426246 0.306923 0.41177 89 88 62
-0.427851 0.307149 0.410388 56 52 28
-0.426398 0.321534 0.394039 53 62 38
-0.291813 0.354214 0.348608 135 110 80
-0.293447 0.355703 0.348414 99 106 64
-0.285775 0.361275 0.33933 102 82 52
-0.291285 0.367101 0.342172 94 74 43
-0.298095 0.368472 0.33187 104 106 78
-0.299532 0.369342 0.329698 48 52 26
-0.298944 0.380752 0.344768 138 126 104
-0.381037 0.420704 0.383339 106 87 54
-0.33028 0.413103 0.351561 156 156 114
-0.330263 0.420118 0.353395 152 148 103
-0.354334 0.435791 0.367575 155 154 112
-0.351833 0.436553 0.368629 150 149 110
-0.328624 0.437123 0.36334 151 144 100
-0.328323 0.440676 0.365344 110 92 63
-0.293971 0.458815 0.396924 106 88 56
-0.291563 0.460102 0.401081 76 62 35
-0.348734 0.453659 0.37807 112 94 66
-0.304517 0.456839 0.38771 150 142 98
-0.306054 0.45781 0.388869 150 146 105
-0.31069 0.467597 0.391439 110 108 74
-0.342817 0.469609 0.388836 150 146 104
-0.323534 0.47126 0.392337 148 142 100
-0.326537 0.475794 0.3973 116 96 60
-0.480473 0.197164 0.399583 72 54 44
-0.387124 0.281252 0.389575 87 86 56
-0.428312 0.307057 0.4127 142 122 80
-0.426335 0.306953 0.412417 118 116 104
-0.428887 0.314889 0.405076 83 79 48
-0.432323 0.321444 0.387696 106 104 76
-0.485764 0.330994 0.389361 134 129 94
-0.31915 0.349848 0.359244 142 138 104
-0.29817 0.359067 0.335428 155 147 110
-0.285825 0.361585 0.340489 134 126 92
-0.297092 0.369489 0.336958 108 112 70
-0.298496 0.370443 0.335522 148 142 110
-0.299336 0.378366 0.340766 91 92 56
-0.2975 0.380732 0.345986 142 144 90
-0.403739 0.399797 0.405555 136 128 96
-0.353722 0.431212 0.366254 115 104 78
-0.351713 0.436504 0.369375 104 104 82
-0.293553 0.457657 0.394357 68 52 32
-0.302681 0.458444 0.390801 117 118 80
-0.326433 0.458041 0.379861 82 62 42
-0.324175 0.471777 0.393248 141 116 70
-0.50437 0.169306 0.413005 100 102 52
-0.418006 0.241406 0.398415 94 72 42
-0.372116 0.276323 0.384246 42 14 8
-0.384013 0.287064 0.390098 118 88 70
-0.293964 0.355609 0.348158 64 46 25
-0.395116 0.362517 0.365772 121 118 74
-0.286432 0.361425 0.338372 153 154 99
-0.291463 0.367053 0.341007 116 101 64
-0.298713 0.366498 0.328545 148 150 102
-0.299788 0.368003 0.33589 114 109 72
-0.373052 0.370093 0.330533 140 125 82
-0.297244 0.380335 0.345268 98 98 57
-0.397472 0.394901 0.377394 52 25 13
-0.401135 0.409172 0.410104 40 42 20
-0.394775 0.426794 0.425736 88 88 54
-0.330424 0.41212 0.349691 126 111 70
-0.331875 0.413367 0.351371 114 116 78
-0.328716 0.413669 0.351897 47 48 24
-0.380309 0.423246 0.384528 58 63 26
-0.367834 0.450593 0.382232 124 123 80
-0.349964 0.448831 0.377994 66 64 54
-0.348946 0.448337 0.376367 41 23 19
-0.292182 0.459807 0.401422 48 32 23
-0.347063 0.465957 0.388329 148 144 100
-0.48048 0.196763 0.39864 104 83 47
-0.469518 0.209426 0.404842 136 132 91
-0.372626 0.275934 0.386176 112 65 46
-0.428249 0.307319 0.409159 157 147 128
-0.426383 0.306998 0.412009 73 33 19
-0.420684 0.330789 0.355789 106 79 76
-0.357684 0.349512 0.342781 124 118 90
-0.320096 0.349797 0.337075 122 95 60
-0.299696 0.356399 0.33732 110 119 66
-0.303365 0.358062 0.340258 158 160 104
-0.299334 0.365862 0.324797 141 145 94
-0.391889 0.393725 0.368736 150 150 93
-0.384647 0.40298 0.369346 146 138 78
-0.39443 0.423295 0.413491 103 100 64
-0.380772 0.423545 0.388507 48 55 30
-0.329005 0.412078 0.34666 40 28 13
-0.351076 0.436302 0.368599 69 65 39
-0.32779 0.43935 0.36897 101 102 76
-0.352205 0.451875 0.377003 86 78 46
-0.471618 0.200539 0.402693 96 94 68
-0.449529 0.216371 0.403146 38 42 17
-0.384931 0.286771 0.388861 90 74 62
-0.489142 0.331938 0.3942 116 99 70
-0.420612 0.338837 0.383487 158 151 114
-0.293968 0.355505 0.34928 114 92 56
-0.28586 0.355219 0.344197 102 104 56
-0.304265 0.358095 0.339611 88 64 51
-0.305215 0.360119 0.337729 152 138 120
-0.298823 0.364706 0.3301 49 23 14
-0.291984 0.367666 0.341579 108 88 76
-0.303241 0.367236 0.327364 90 78 64
-0.296997 0.369757 0.337014 44 18 13
-0.297361 0.371475 0.345392 148 131 118
-0.299341 0.378905 0.342104 158 155 112
-0.403927 0.396756 0.394097 126 118 88
-0.395056 0.424199 0.417297 107 98 60
-0.393844 0.433152 0.420329 112 108 90
-0.329832 0.424123 0.356562 106 107 68
-0.304592 0.4599 0.391467 88 74 48
-0.480799 0.195738 0.398385 154 152 121
-0.423852 0.300486 0.419774 154 147 104
-0.420669 0.303044 0.420188 66 74 40
-0.426348 0.307421 0.411357 68 64 30
-0.488748 0.331741 0.389813 82 81 43
-0.422688 0.339774 0.398972 104 106 81
-0.294099 0.35562 0.34915 96 82 64
-0.298737 0.368373 0.336598 76 72 58
-0.393152 0.393653 0.370175 117 92 76
-0.372508 0.399846 0.356143 116 101 68
-0.40052 0.414605 0.412214 114 88 54
-0.384492 0.404446 0.372548 115 86 68
-0.394942 0.425067 0.417229 60 66 31
-0.394926 0.392089 0.371175 45 91 6
-0.344842 0.46764 0.385513 34 12 52
-0.354754 0.452605 0.380824 13 4 1
-0.327093 0.454545 0.376797 112 78 38
-0.291745 0.354326 0.341606 104 104 80
-0.467736 0.198468 0.408015 110 96 78
-0.285364 0.363686 0.339476 146 142 78
-0.299002 0.380495 0.345321 148 142 101
-0.286818 0.36275 0.337562 106 100 86
-0.286207 0.365134 0.340442 116 111 93
-0.30173 0.360384 0.335521 115 94 58
-0.342961 0.467239 0.382375 108 85 49
-0.429078 0.314754 0.406001 83 76 62
-0.428885 0.314495 0.40366 156 158 122
-0.350531 0.473087 0.391959 151 146 101
-0.361586 0.365652 0.333639 35 22 5
-0.363089 0.365246 0.333281 79 82 54
-0.36151 0.365031 0.331012 92 89 46
-0.362425 0.379659 0.337047 40 33 20
-0.36128 0.387766 0.341592 40 38 20
-0.311243 0.467845 0.390742 113 88 70
-0.364848 0.371094 0.335119 52 40 20
-0.362395 0.379646 0.335996 145 140 76
-0.359489 0.398491 0.346171 113 103 74
-0.35145 0.435947 0.368075 142 116 90
-0.33676 0.472636 0.392017 87 58 42
-0.362882 0.365248 0.332932 158 162 104
-0.357981 0.408392 0.350494 138 117 68
-0.373534 0.370748 0.333053 127 110 84
-0.301813 0.442758 0.379962 109 109 66
-0.35097 0.449799 0.376917 122 126 93
-0.297913 0.464206 0.400144 118 118 84
-0.310656 0.466656 0.390601 146 152 95
-0.291943 0.37137 0.356634 158 153 112
-0.36279 0.358622 0.333906 109 94 72
-0.361929 0.388117 0.344203 153 155 126
-0.286303 0.344393 0.343571 84 76 56
-0.278039 0.406348 0.383636 78 76 44
-0.29139 0.459377 0.401105 40 44 24
-0.295346 0.463698 0.402098 115 96 72
-0.28149 0.347271 0.343451 78 82 49
-0.355988 0.419252 0.361457 38 120 2
-0.277336 0.342178 0.340333 204 205 176
-0.33349 0.364645 0.326209 116 48 90
-0.39435 0.371466 0.352275 65 76 21
-0.38575 0.369798 0.338426 198 81 56
-0.331739 0.39326 0.345782 73 123 88
-0.339919 0.396993 0.338878 68 68 76
-0.329608 0.424627 0.358222 140 125 72
-0.316176 0.35641 0.325989 47 50 89
-0.335409 0.369544 0.324531 142 79 178
-0.333702 0.364987 0.326385 76 200 186
-0.331565 0.40162 0.347036 118 16 14
-0.304068 0.441716 0.379188 100 87 60
-0.333793 0.365085 0.328616 96 120 153
-0.336071 0.384155 0.339473 36 114 83
-0.32768 0.412589 0.349371 17 8 37
-0.267242 0.245204 0.312097 108 107 68
-0.418168 0.241474 0.4017 154 157 101
-0.36862 0.246356 0.406048 106 108 67
-0.40985 0.248837 0.402956 113 122 70
-0.40197 0.255633 0.405026 108 115 66
-0.296882 0.273333 0.33852 154 153 95
-0.420716 0.282722 0.447672 150 148 87
-0.316186 0.28444 0.375803 152 153 97
-0.277669 0.353177 0.339516 68 65 24
-0.282386 0.356222 0.355981 110 109 62
-0.361733 0.364167 0.336105 122 105 68
-0.289031 0.365838 0.34372 135 120 77
-0.316857 0.284226 0.371517 55 38 23
-0.422658 0.34189 0.43007 100 102 60
-0.320479 0.348482 0.351839 110 109 54
-0.312757 0.364212 0.32378 106 84 46
-0.397797 0.371225 0.356139 69 56 32
-0.312296 0.366182 0.318998 70 44 22
-0.443635 0.219035 0.403269 136 116 78
-0.327818 0.253065 0.347653 110 108 86
-0.366298 0.251095 0.40769 152 144 99
-0.394592 0.261734 0.411716 118 100 84
-0.407502 0.264755 0.398751 110 88 52
-0.387953 0.27078 0.386845 96 73 42
-0.425776 0.304452 0.445311 79 54 39
-0.399886 0.316338 0.379554 76 68 57
-0.398086 0.371393 0.355035 152 153 96
-0.396587 0.372162 0.355582 153 162 110
-0.303296 0.366687 0.322354 152 145 110
-0.297988 0.36889 0.332198 144 138 106
-0.379247 0.417914 0.367159 148 146 87
-0.300383 0.423016 0.368274 45 40 17
-0.389106 0.436373 0.40653 118 116 68
-0.30277 0.424614 0.365128 98 87 48
-0.444344 0.217931 0.40739 32 36 15
-0.410826 0.247096 0.415607 29 28 16
-0.367671 0.253263 0.392568 24 14 6
-0.403293 0.254329 0.413989 105 98 75
-0.30412 0.279551 0.33426 137 116 86
-0.31648 0.283403 0.373638 48 34 19
-0.306987 0.285254 0.356834 60 50 36
-0.426735 0.292521 0.442305 84 78 62
-0.42202 0.302203 0.450027 100 86 66
-0.340494 0.325566 0.386251 62 41 28
-0.264928 0.321943 0.339138 72 28 18
-0.275326 0.330864 0.367682 118 94 81
-0.278963 0.334144 0.355299 116 94 56
-0.355702 0.34976 0.360125 114 84 66
-0.360654 0.356472 0.339908 79 40 22
-0.394184 0.371615 0.354877 144 133 101
-0.279477 0.385443 0.368192 86 82 52
-0.330123 0.382977 0.335885 90 91 56
-0.280733 0.396926 0.376211 140 137 81
-0.384586 0.403679 0.370564 107 96 70
-0.381092 0.421484 0.384922 144 144 87
-0.380224 0.42261 0.382381 110 108 64
-0.330263 0.42109 0.355161 110 116 74
-0.293218 0.414275 0.330578 108 110 72
-0.303666 0.425437 0.367643 78 58 38
-0.385867 0.440377 0.412656 103 102 57
-0.445223 0.217317 0.411096 157 152 116
-0.436965 0.22422 0.413037 76 62 42
-0.367402 0.252615 0.397305 56 64 30
-0.388422 0.269468 0.398074 150 143 98
-0.308223 0.285588 0.348488 54 47 26
-0.403474 0.312429 0.413882 148 144 113
-0.40082 0.316149 0.39354 91 87 58
-0.404006 0.320885 0.37643 148 119 96
-0.276423 0.322407 0.349799 94 99 62
-0.330223 0.343436 0.400231 86 84 48
-0.287995 0.354287 0.337066 156 156 118
-0.299687 0.355986 0.340261 64 46 20
-0.394194 0.379945 0.3575 86 65 48
-0.283778 0.39495 0.366191 78 34 25
-0.287087 0.403889 0.359022 155 148 110
-0.326433 0.415466 0.358738 117 94 78
-0.374975 0.438726 0.390336 122 89 68
-0.38252 0.272277 0.412944 114 118 76
-0.316089 0.282228 0.372703 112 108 96
-0.426508 0.293454 0.427546 57 62 35
-0.424705 0.300275 0.422434 161 157 123
-0.403908 0.319141 0.396282 152 160 104
-0.279486 0.321855 0.336271 73 77 43
-0.34439 0.336022 0.351722 71 80 31
-0.356131 0.352635 0.356717 86 82 54
-0.305878 0.358087 0.341699 84 82 42
-0.285857 0.362857 0.34365 86 90 53
-0.393839 0.374638 0.361815 78 74 45
-0.386124 0.379338 0.348259 26 33 14
-0.387217 0.393167 0.36301 106 106 76
-0.384308 0.404643 0.369584 84 78 58
-0.298613 0.392053 0.30936 88 80 72
-0.329541 0.424058 0.363563 44 12 8
-0.387368 0.447484 0.415604 157 150 130
-0.297261 0.448561 0.364145 78 74 60
-0.402785 0.255418 0.402205 37 14 8
-0.383624 0.271596 0.406778 76 70 56
-0.425285 0.299737 0.428178 149 138 120
-0.404612 0.319621 0.363996 48 32 24
-0.360726 0.32522 0.407194 136 122 85
-0.281617 0.320721 0.328516 45 18 14
-0.28467 0.354055 0.352254 22 72 11
-0.289816 0.360508 0.328402 74 76 50
-0.288037 0.359702 0.322417 38 36 95
-0.28444 0.395106 0.365223 23 39 12
-0.386872 0.443807 0.405249 74 109 10
-0.225709 0.218604 0.284379 121 102 74
-0.481252 0.188682 0.407716 107 84 49
-0.476326 0.20081 0.407445 108 106 87
-0.260722 0.348733 0.38272 154 148 103
-0.258985 0.357752 0.393409 68 78 42
-0.319551 0.351761 0.32803 113 94 58
-0.318841 0.352339 0.327757 107 90 56
-0.259595 0.36953 0.39984 102 96 71
-0.364275 0.365371 0.332599 70 56 42
-0.2598 0.386578 0.407591 77 56 41
-0.25964 0.388418 0.406717 98 64 46
-0.298652 0.378235 0.342429 118 90 74
-0.300748 0.38261 0.345978 157 148 130
-0.276719 0.394787 0.379446 91 53 37
-0.277692 0.403663 0.381801 157 147 131
-0.359415 0.3976 0.344693 153 142 126
-0.30071 0.398365 0.35384 157 146 136
-0.340051 0.39724 0.339821 118 97 84
-0.277761 0.407694 0.385201 158 156 116
-0.357758 0.409406 0.351868 158 155 114
-0.359146 0.40952 0.350459 109 89 58
-0.278288 0.421742 0.39163 154 154 112
-0.278533 0.423849 0.393682 92 86 54
-0.294064 0.457751 0.393897 107 111 66
-0.291864 0.459576 0.39928 66 74 43
-0.326799 0.453449 0.375638 150 147 105
-0.303258 0.457938 0.388071 95 96 52
-0.294275 0.464243 0.404872 158 156 116
-0.304737 0.467008 0.394308 156 152 116
-0.311029 0.470139 0.396821 80 64 28
-0.335153 0.47477 0.389206 158 151 114
-0.274122 0.341588 0.353172 106 114 68
-0.266889 0.345009 0.368112 110 91 58
-0.36684 0.350023 0.328697 144 138 92
-0.257264 0.354629 0.390706 99 99 80
-0.292013 0.354181 0.348998 112 90 52
-0.31921 0.352683 0.328978 67 50 24
-0.275282 0.355216 0.350991 98 70 43
-0.293112 0.355099 0.343041 151 144 106
-0.258188 0.36318 0.392287 98 96 78
-0.364159 0.365276 0.332069 146 136 108
-0.258493 0.374211 0.402416 124 115 72
-0.296918 0.369042 0.335785 112 86 66
-0.385621 0.379074 0.347963 130 102 88
-0.276599 0.39525 0.382671 156 153 112
-0.361535 0.389862 0.345088 122 102 64
-0.340102 0.39711 0.339835 102 112 66
-0.277634 0.407244 0.386135 117 96 56
-0.293416 0.407284 0.363036 126 105 70
-0.356882 0.420505 0.365524 110 114 74
-0.279555 0.440381 0.404062 42 51 30
-0.351691 0.450845 0.374034 152 145 102
-0.288871 0.462929 0.402476 112 108 72
-0.294651 0.462595 0.400425 156 149 110
-0.304622 0.467361 0.396787 128 122 102
-0.358512 0.348379 0.332438 152 144 106
-0.259835 0.359642 0.386682 120 92 86
-0.36893 0.35688 0.338503 109 82 45
-0.299902 0.356553 0.337912 154 147 111
-0.301229 0.357225 0.33906 152 144 110
-0.362326 0.358591 0.328954 146 138 112
-0.364629 0.365269 0.335242 108 114 62
-0.361409 0.364936 0.330084 152 148 88
-0.334136 0.36328 0.316097 105 110 62
-0.287689 0.366994 0.345294 151 148 90
-0.263807 0.377029 0.390346 154 161 104
-0.259679 0.389276 0.409808 150 148 89
-0.299956 0.388831 0.348364 148 143 80
-0.30175 0.391274 0.35228 99 103 54
-0.277606 0.403952 0.38281 98 98 58
-0.359377 0.397972 0.34461 92 97 57
-0.280669 0.405583 0.375062 106 111 61
-0.286827 0.461287 0.408184 84 90 76
-0.291307 0.460707 0.404256 152 145 98
-0.34772 0.474375 0.39411 128 124 112
-0.327094 0.475429 0.395984 101 86 42
-0.319427 0.352222 0.33413 148 138 105
-0.318828 0.355416 0.32934 120 110 98
-0.362173 0.358112 0.324674 152 154 98
-0.303751 0.360347 0.34203 150 147 86
-0.363067 0.365414 0.333469 149 147 85
-0.334115 0.363936 0.320393 150 148 88
-0.374545 0.37067 0.335459 118 116 64
-0.385734 0.379312 0.349857 146 142 78
-0.298806 0.379907 0.346218 106 104 60
-0.30093 0.383293 0.349786 87 78 44
-0.332439 0.381438 0.332507 103 108 54
-0.361264 0.3878 0.338717 145 141 78
-0.302045 0.39073 0.349967 98 97 55
-0.372589 0.399541 0.355523 140 136 74
-0.278223 0.4109 0.389241 96 100 49
-0.267717 0.419796 0.411454 63 67 39
-0.278751 0.423062 0.393418 36 42 28
-0.280081 0.4385 0.398033 100 101 56
-0.282106 0.457362 0.40877 148 122 94
-0.28856 0.453386 0.385371 130 110 69
-0.302087 0.457412 0.389062 104 108 76
-0.294931 0.464929 0.405954 122 96 77
-0.308728 0.469569 0.398854 116 118 90
-0.273639 0.341851 0.355181 94 90 64
-0.281243 0.347035 0.346232 112 109 92
-0.300032 0.356045 0.339092 91 78 74
-0.362689 0.358401 0.330665 106 102 88
-0.304883 0.358849 0.337996 148 140 102
-0.288153 0.359705 0.34025 108 109 58
-0.365384 0.365089 0.332715 99 98 62
-0.36073 0.365046 0.333189 140 138 80
-0.334479 0.363691 0.318443 93 97 48
-0.286914 0.367075 0.346367 100 104 62
-0.300719 0.370448 0.340391 148 139 121
-0.260272 0.390361 0.413074 64 52 24
-0.296951 0.380857 0.348143 121 100 64
-0.332462 0.381136 0.333282 118 97 56
-0.36168 0.3883 0.341456 154 148 102
-0.279557 0.396973 0.37936 139 118 80
-0.27818 0.405614 0.384479 154 154 112
-0.27074 0.418792 0.398173 105 114 67
-0.330714 0.410966 0.345933 150 143 100
-0.279151 0.422689 0.392912 70 70 42
-0.280484 0.438941 0.399824 146 141 96
-0.354147 0.432867 0.365703 108 88 50
-0.275032 0.345677 0.349587 80 76 44
-0.260434 0.349988 0.38333 92 78 50
-0.28128 0.346629 0.343886 73 62 46
-0.274449 0.362693 0.362225 141 135 92
-0.302031 0.360676 0.337618 121 120 105
-0.377219 0.364586 0.335156 94 92 78
-0.334871 0.363903 0.319638 156 146 132
-0.265949 0.376756 0.381896 64 36 20
-0.335624 0.368582 0.319833 153 141 130
-0.277917 0.374799 0.362636 124 90 74
-0.299734 0.37848 0.340347 122 100 66
-0.3938 0.392107 0.367948 148 140 110
-0.361761 0.388797 0.341968 152 144 112
-0.28038 0.396301 0.375038 155 154 121
-0.278486 0.405076 0.382857 103 100 61
-0.36017 0.398869 0.34852 112 118 66
-0.264794 0.414573 0.415913 155 152 117
-0.281269 0.408369 0.378668 144 140 114
-0.354225 0.43243 0.365559 118 118 69
-0.349644 0.476144 0.398566 115 113 72
-0.258338 0.350402 0.37377 80 76 63
-0.274768 0.355895 0.356783 20 20 18
-0.361874 0.356825 0.326612 84 78 71
-0.301753 0.360267 0.338004 80 74 61
-0.278651 0.387178 0.380165 79 74 66
-0.265352 0.394851 0.410041 82 77 71
-0.268327 0.406693 0.412703 81 76 64
-0.384221 0.400751 0.362432 74 72 42
-0.371995 0.399439 0.35451 78 80 52
-0.277992 0.40571 0.388264 78 75 62
-0.264849 0.413326 0.414312 41 20 10
-0.304533 0.462383 0.398155 76 70 66
-0.314945 0.470087 0.395063 126 136 178
-0.376457 0.35523 0.33637 136 118 96
-0.361298 0.355771 0.328865 97 71 40
-0.301912 0.356857 0.341594 89 70 39
-0.279889 0.385672 0.370305 142 164 182
-0.280404 0.397499 0.380349 82 78 68
-0.384737 0.404327 0.372254 130 172 63
-0.42046 0.323569 0.336239 42 50 26
-0.358725 0.352652 0.336038 88 58 40
-0.275446 0.355095 0.350343 156 131 90
-0.393545 0.360986 0.348794 153 146 102
-0.280596 0.365656 0.344647 144 128 94
-0.363169 0.366047 0.334747 66 52 35
-0.299904 0.388748 0.34714 120 96 82
-0.288872 0.411165 0.372603 130 110 70
-0.279466 0.440353 0.402565 91 84 54
-0.303592 0.444298 0.381069 81 64 34
-0.320072 0.350092 0.338239 116 118 76
-0.287907 0.353052 0.34673 66 48 34
-0.288036 0.36603 0.340456 114 89 54
-0.300562 0.382553 0.347326 119 108 74
-0.307934 0.469715 0.39983 116 117 82
-0.345281 0.471072 0.392028 153 148 110
-0.347724 0.474614 0.394426 78 58 49
-0.319805 0.351448 0.334861 104 78 48
-0.275729 0.355052 0.346662 128 112 100
-0.363396 0.365035 0.331334 153 150 90
-0.278658 0.421708 0.389681 106 108 51
-0.393309 0.36186 0.355571 93 92 58
-0.299111 0.37046 0.33843 98 91 50
-0.287603 0.352412 0.344641 154 152 91
-0.277038 0.361536 0.348116 103 82 46
-0.286436 0.362741 0.341907 106 96 60
-0.374761 0.438551 0.389775 144 116 91
-0.348322 0.473633 0.391034 88 76 69
-0.36966 0.35571 0.33739 158 153 114
-0.292445 0.366837 0.336669 156 153 112
-0.370082 0.467983 0.405866 148 144 82
-0.376076 0.356815 0.340215 132 72 64
-0.369158 0.354359 0.334487 40 18 10
-0.27938 0.367855 0.349416 86 73 68
-0.269762 0.336113 0.356795 61 38 21
-0.298664 0.378885 0.344 149 129 86
-0.334262 0.383363 0.33472 118 114 83
-0.292047 0.367321 0.340882 64 62 46
-0.386235 0.388051 0.34351 150 144 101
-0.299811 0.389094 0.351302 132 122 76
-0.344671 0.469058 0.389432 158 150 132
-0.278532 0.386218 0.372507 98 58 36
-0.331927 0.400854 0.342494 156 146 120
-0.280912 0.367016 0.351233 50 26 18
-0.366497 0.37102 0.336091 120 117 83
-0.332714 0.381651 0.334926 160 150 130
-0.335352 0.383353 0.336208 155 144 126
-0.276489 0.326191 0.356322 114 94 62
-0.336104 0.383206 0.336139 80 75 60
-0.377117 0.178145 0.466496 120 112 70
-0.37483 0.184385 0.464215 136 125 86
-0.460528 0.204557 0.412696 152 154 99
-0.370941 0.194581 0.453876 122 128 80
-0.379756 0.196886 0.451226 142 148 100
-0.37675 0.207622 0.441191 123 120 76
-0.33748 0.245451 0.401247 108 197 42
-0.409658 0.248928 0.401565 149 144 107
-0.401994 0.255911 0.402131 152 146 108
-0.320704 0.25733 0.411208 84 70 52
-0.322019 0.263741 0.410378 111 114 80
-0.424244 0.319349 0.342744 91 68 32
-0.374213 0.360051 0.352917 98 64 54
-0.277292 0.36205 0.343045 32 12 8
-0.313717 0.369195 0.333044 72 44 28
-0.393229 0.381454 0.358654 202 194 187
-0.330847 0.383362 0.333987 94 56 50
-0.380479 0.418714 0.373531 196 72 46
-0.329855 0.420776 0.355719 154 142 108
-0.351255 0.454575 0.382138 144 138 97
-0.379955 0.171053 0.474652 107 102 57
-0.389562 0.177593 0.466203 131 128 80
-0.388625 0.183762 0.464478 100 86 48
-0.471061 0.208067 0.410288 90 92 80
-0.379197 0.198504 0.443877 131 114 80
-0.376662 0.209075 0.434349 86 79 46
-0.382493 0.223131 0.43492 94 80 40
-0.337098 0.244415 0.405095 176 80 42
-0.417365 0.254569 0.400963 56 36 34
-0.384348 0.277315 0.396042 172 173 169
-0.434474 0.319394 0.395124 141 122 102
-0.276316 0.324783 0.36916 75 52 38
-0.27467 0.327581 0.373424 147 144 107
-0.274626 0.361595 0.356753 38 39 62
-0.315718 0.362045 0.331393 168 140 134
-0.397595 0.370214 0.35081 70 103 8
-0.313889 0.368858 0.330753 35 139 134
-0.33241 0.380872 0.333479 180 122 38
-0.388089 0.391243 0.360497 90 190 83
-0.379451 0.421158 0.374568 204 204 174
-0.329219 0.425565 0.359575 74 200 169
-0.368374 0.458577 0.40534 107 150 84
-0.457457 0.21987 0.396914 190 192 75
-0.435889 0.22537 0.40679 176 129 66
-0.402415 0.255617 0.404194 68 78 43
-0.399987 0.258215 0.385602 208 204 195
-0.407921 0.264296 0.401787 66 69 120
-0.408891 0.324482 0.341369 76 104 100
-0.275024 0.324908 0.376746 121 106 62
-0.27325 0.347433 0.359615 83 77 71
-0.275094 0.361394 0.353913 94 156 156
-0.279895 0.366345 0.350779 174 79 50
-0.313544 0.368788 0.333745 181 123 84
-0.276955 0.374477 0.363824 202 77 48
-0.300306 0.369207 0.328563 32 72 54
-0.330198 0.393619 0.342482 202 200 169
-0.331418 0.400737 0.345782 41 68 50
-0.293088 0.408403 0.368003 30 31 54
-0.299707 0.411679 0.365645 168 172 147
-0.380881 0.420634 0.381761 74 199 168
-0.377434 0.1778 0.468277 132 132 80
-0.376432 0.180994 0.465166 27 66 142
-0.379721 0.197545 0.446454 30 128 38
-0.410515 0.248336 0.405202 206 202 188
-0.419036 0.319165 0.351943 78 106 84
-0.410036 0.324709 0.348189 37 152 138
-0.275847 0.354481 0.346104 131 170 167
-0.270977 0.359564 0.358025 137 114 84
-0.274273 0.3619 0.360142 44 82 90
-0.315637 0.362464 0.330937 76 141 50
-0.288315 0.364014 0.339039 109 144 47
-0.397824 0.370692 0.350767 126 116 86
-0.313435 0.368527 0.33091 59 152 12
-0.297136 0.380416 0.346614 104 107 169
-0.387021 0.399864 0.364562 72 70 72
-0.32805 0.419844 0.354596 26 64 72
-0.376939 0.209435 0.433359 188 150 92
-0.459187 0.220841 0.404322 112 130 60
-0.335299 0.265114 0.387227 36 40 66
-0.372613 0.276515 0.377245 98 22 65
-0.367892 0.296238 0.36336 40 14 8
-0.36512 0.296357 0.357699 166 13 8
-0.340476 0.325843 0.391219 76 74 172
-0.275045 0.34655 0.350809 85 186 129
-0.281027 0.366195 0.33879 157 159 150
-0.314922 0.366255 0.328925 160 146 12
-0.330532 0.372362 0.329688 134 4 3
-0.381205 0.42086 0.381523 192 90 98
-0.329824 0.424326 0.35827 166 144 138
-0.370414 0.467905 0.407745 36 38 66
-0.420001 0.319288 0.359078 56 42 25
-0.278112 0.324814 0.356103 85 102 88
-0.305152 0.358614 0.3421 102 148 37
-0.315275 0.362868 0.334129 105 104 112
-0.392948 0.379383 0.350832 106 30 27
-0.302202 0.3817 0.342577 88 110 144
-0.329942 0.381584 0.329828 101 74 88
-0.300555 0.389078 0.349804 142 80 86
-0.395895 0.396999 0.352981 63 166 64
-0.331515 0.401611 0.345023 76 110 148
-0.328239 0.443772 0.379541 42 172 152
-0.457193 0.222653 0.400103 148 128 32
-0.340569 0.336131 0.387422 76 104 150
-0.363389 0.356077 0.34717 76 28 64
-0.274872 0.354683 0.353996 170 46 62
-0.314863 0.362931 0.33802 34 84 0
-0.302543 0.381289 0.343938 0 28 4
-0.334897 0.403403 0.347808 156 76 71
-0.329335 0.435517 0.354832 28 38 23
-0.274075 0.327182 0.371533 134 40 0
-0.340472 0.336188 0.383888 88 0 0
-0.314202 0.362643 0.340682 7 0 128
-0.320095 0.349891 0.337357 132 112 75
-0.371395 0.353211 0.340274 119 90 62
-0.301176 0.357165 0.337626 138 130 92
-0.334046 0.375845 0.331061 78 28 16
-0.368141 0.358378 0.343359 92 56 42
-0.362086 0.357752 0.32519 48 28 18
-0.283698 0.368452 0.352162 120 116 102
-0.361966 0.370708 0.332852 110 102 80
-0.348017 0.427156 0.359168 108 116 61
-0.374639 0.438945 0.390678 38 36 22
-0.348547 0.453093 0.377813 128 128 76
-0.271204 0.337307 0.345042 112 94 52
-0.359807 0.364844 0.332962 152 146 102
-0.292498 0.355432 0.346777 20 24 14
-0.404689 0.360241 0.351276 2 0 42
-0.291914 0.35925 0.327 74 72 41
-0.288552 0.361658 0.333196 42 44 20
-0.230456 0.219748 0.285896 158 162 104
-0.353742 0.429784 0.36139 143 144 95
-0.231675 0.220178 0.285895 148 146 84
-0.231661 0.22108 0.288023 149 146 86
-0.229744 0.219204 0.286366 64 65 50
-0.235374 0.224786 0.284189 130 106 79
-0.230096 0.224482 0.291839 98 89 75
-0.286658 0.463656 0.412566 49 82 96
-0.122939 0.3621 1.36537 73 72 40
-0.397867 0.274542 0.396134 102 100 61
-0.308854 0.284762 0.366525 117 119 79
-0.30957 0.286469 0.345209 127 127 80
-0.24059 0.285796 0.362524 155 156 98
-0.418366 0.301218 0.429167 150 148 89
-0.253872 0.298713 0.384539 112 118 64
-0.247684 0.299696 0.378184 150 148 89
-0.397194 0.30575 0.365254 101 98 56
-0.342378 0.305867 0.386069 154 150 92
-0.318527 0.307006 0.406876 150 149 92
-0.429696 0.314543 0.406672 104 110 65
-0.271575 0.308959 0.41778 91 93 53
-0.267016 0.309446 0.418159 102 103 55
-0.389589 0.315232 0.38384 156 154 94
-0.280298 0.316265 0.433916 149 146 86
-0.355374 0.330155 0.388213 149 146 83
-0.43506 0.335383 0.410322 142 138 92
-0.407381 0.3382 0.420066 98 100 56
-0.409424 0.340054 0.434967 140 142 94
-0.270856 0.329008 0.339563 94 94 52
-0.270177 0.333298 0.343699 147 143 79
-0.272006 0.333859 0.332572 149 145 82
-0.410225 0.346761 0.396342 103 103 69
-0.260472 0.348696 0.384336 113 114 65
-0.397582 0.355675 0.387413 108 114 64
-0.275678 0.347903 0.346939 98 96 53
-0.405665 0.363332 0.410929 102 106 52
-0.257677 0.353888 0.384422 58 66 37
-0.401796 0.364067 0.398684 84 88 48
-0.408992 0.368069 0.420887 122 122 72
-0.260002 0.357052 0.384986 102 98 58
-0.259767 0.358851 0.392398 88 79 42
-0.275977 0.355261 0.346799 104 82 45
-0.40563 0.363712 0.353271 78 68 41
-0.318218 0.35553 0.315981 152 145 99
-0.406836 0.367486 0.362337 95 100 56
-0.274441 0.362599 0.363356 144 137 92
-0.273514 0.362481 0.359929 106 105 86
-0.260504 0.368143 0.398405 138 132 94
-0.259794 0.369241 0.399221 69 76 36
-0.262355 0.369472 0.396894 152 144 100
-0.284657 0.3636 0.341881 90 84 72
-0.276695 0.36308 0.342655 126 122 94
-0.400265 0.372993 0.366003 106 108 75
-0.394578 0.371888 0.354495 156 138 118
-0.297078 0.368885 0.333669 102 84 65
-0.29788 0.369956 0.336271 159 150 125
-0.300139 0.370426 0.333028 120 92 74
-0.403549 0.387348 0.385789 160 151 126
-0.259328 0.387317 0.409308 64 50 24
-0.259417 0.3885 0.406902 142 119 98
-0.262776 0.388632 0.398155 95 77 44
-0.276815 0.385974 0.379706 122 94 80
-0.29766 0.380993 0.345299 157 148 123
-0.266409 0.403142 0.408024 152 122 100
-0.277298 0.40362 0.383397 138 104 78
-0.301131 0.400859 0.356222 80 58 30
-0.302696 0.40186 0.356544 44 32 15
-0.277946 0.406323 0.379193 53 38 22
-0.293217 0.408061 0.365457 155 145 119
-0.35768 0.409645 0.352465 152 142 117
-0.268005 0.424422 0.420872 124 120 98
-0.379681 0.418455 0.373154 113 107 84
-0.330638 0.412313 0.352175 160 151 131
-0.378925 0.422122 0.377217 130 129 110
-0.278333 0.421482 0.391515 114 86 70
-0.36851 0.454161 0.396226 68 28 18
-0.351823 0.453662 0.380166 64 24 16
-0.349475 0.454923 0.382727 65 27 17
-0.326733 0.453111 0.374717 113 91 78
-0.347121 0.474586 0.393439 152 140 124
-0.318124 0.247205 0.418991 148 140 111
-0.322789 0.27108 0.406411 154 146 116
-0.310932 0.276032 0.402022 156 162 108
-0.30365 0.279967 0.341557 151 158 107
-0.393708 0.288483 0.348308 160 160 101
-0.384105 0.298464 0.359944 157 161 106
-0.38897 0.299036 0.373496 156 156 96
-0.420965 0.301649 0.421631 120 116 76
-0.420779 0.301553 0.438392 114 112 70
-0.247521 0.29915 0.375787 150 152 95
-0.318774 0.307031 0.409629 152 146 114
-0.265095 0.305469 0.379998 134 135 85
-0.262292 0.306347 0.425768 151 154 96
-0.319446 0.308841 0.396581 114 116 62
-0.311318 0.309299 0.435714 149 140 108
-0.398628 0.312131 0.33964 151 148 88
-0.279342 0.315235 0.419166 106 108 64
-0.279973 0.316705 0.446475 154 154 96
-0.433559 0.321701 0.395956 154 154 98
-0.424496 0.321367 0.38949 150 148 88
-0.271115 0.323792 0.38184 156 156 98
-0.431988 0.332952 0.383594 152 150 90
-0.259466 0.339478 0.379902 126 110 65
-0.257602 0.350122 0.393304 154 152 92
-0.401522 0.354309 0.353967 114 110 68
-0.40817 0.366525 0.404907 79 74 41
-0.403749 0.365585 0.394054 104 106 62
-0.395355 0.361946 0.362775 144 140 76
-0.259914 0.361852 0.400912 113 112 76
-0.402895 0.368813 0.397963 105 110 60
-0.272246 0.361748 0.357607 102 106 53
-0.259024 0.367773 0.401783 53 63 34
-0.395911 0.372622 0.355141 108 110 86
-0.298684 0.368519 0.337558 150 142 100
-0.300395 0.371113 0.337404 36 50 27
-0.299889 0.38992 0.351754 160 150 125
-0.302199 0.424497 0.369454 122 104 80
-0.302607 0.426631 0.369786 105 106 74
-0.374477 0.436865 0.386451 88 64 42
-0.343616 0.47168 0.394419 67 54 42
-0.399596 0.272958 0.398503 148 132 128
-0.396082 0.274628 0.386927 154 142 131
-0.389258 0.299193 0.373956 110 90 58
-0.423514 0.301874 0.431804 126 104 68
-0.390384 0.301478 0.358305 156 156 99
-0.253609 0.297857 0.379179 122 96 62
-0.311659 0.309243 0.452418 58 37 16
-0.269055 0.306693 0.419541 154 146 116
-0.268356 0.308285 0.419065 158 160 102
-0.27402 0.310857 0.420459 157 156 98
-0.35641 0.329847 0.391217 158 160 104
-0.269857 0.33369 0.351988 144 143 90
-0.270454 0.338195 0.369718 154 158 102
-0.260559 0.338519 0.368612 154 155 98
-0.358276 0.352039 0.333636 154 156 98
-0.40753 0.36574 0.401223 114 116 68
-0.258673 0.359476 0.388643 108 92 51
-0.271216 0.359262 0.355433 56 61 42
-0.275053 0.361828 0.355969 83 82 48
-0.272489 0.36359 0.374402 96 95 52
-0.409756 0.373552 0.386393 57 58 28
-0.285991 0.36229 0.342617 104 108 60
-0.405483 0.374026 0.377731 142 143 91
-0.297813 0.370609 0.343697 65 76 34
-0.300261 0.369685 0.329925 98 102 50
-0.396987 0.388072 0.387215 152 146 102
-0.332722 0.381794 0.336109 108 107 80
-0.387773 0.391706 0.365018 152 145 98
-0.38751 0.401816 0.372215 150 145 102
-0.396155 0.409163 0.393562 86 88 38
-0.2776 0.402863 0.378485 103 104 80
-0.392023 0.42444 0.407512 68 52 29
-0.358503 0.409451 0.355418 72 67 36
-0.328565 0.442185 0.371679 115 88 72
-0.326417 0.455648 0.374612 158 150 126
-0.307912 0.473022 0.408986 144 120 104
-0.410794 0.28543 0.416181 150 140 114
-0.386258 0.286276 0.401546 116 81 62
-0.309469 0.286482 0.345803 112 88 77
-0.240951 0.285529 0.360204 102 96 70
-0.382919 0.298516 0.354208 148 136 114
-0.391145 0.301461 0.361636 152 139 132
-0.409254 0.303482 0.434952 150 138 124
-0.3119 0.308966 0.445153 153 142 124
-0.384525 0.31497 0.35822 164 153 142
-0.288846 0.315929 0.434336 109 76 70
-0.263884 0.318624 0.398009 152 148 118
-0.361249 0.325663 0.395042 155 142 135
-0.269866 0.321526 0.387363 120 89 81
-0.407452 0.339224 0.423456 149 141 110
-0.41519 0.347488 0.426687 155 148 118
-0.418147 0.348014 0.394898 62 66 32
-0.258112 0.340861 0.395708 159 160 103
-0.35682 0.351026 0.341238 153 156 98
-0.257468 0.352794 0.386777 120 117 94
-0.402862 0.357118 0.36485 152 150 90
-0.404431 0.362455 0.404403 112 120 71
-0.359601 0.353675 0.342613 150 148 88
-0.258787 0.360354 0.391822 104 110 70
-0.405266 0.36409 0.351636 98 96 53
-0.270846 0.362067 0.370577 152 153 96
-0.404602 0.367526 0.359753 115 112 66
-0.260361 0.369438 0.394352 152 150 94
-0.405461 0.375895 0.385954 110 112 54
-0.360703 0.364906 0.330782 148 145 83
-0.277936 0.371545 0.374693 78 80 42
-0.333525 0.366094 0.312615 146 144 92
-0.335205 0.369475 0.322819 144 146 96
-0.300657 0.370968 0.338593 98 97 54
-0.40396 0.387345 0.387524 108 105 64
-0.397037 0.388397 0.386922 101 99 57
-0.388049 0.381195 0.351177 152 154 97
-0.275823 0.384098 0.376446 144 142 86
-0.278847 0.395717 0.377176 106 106 64
-0.381271 0.3979 0.350964 40 39 16
-0.30093 0.397921 0.349172 108 110 59
-0.376945 0.404002 0.358391 112 110 78
-0.357988 0.400542 0.34807 137 132 72
-0.277508 0.406875 0.385251 102 105 53
-0.383052 0.437232 0.397688 160 150 124
-0.300919 0.426383 0.369849 92 96 58
-0.347734 0.451207 0.372936 30 37 20
-0.3268 0.45507 0.380194 104 106 74
-0.384652 0.28647 0.390864 163 152 136
-0.242122 0.285751 0.356144 46 56 28
-0.417693 0.301485 0.424483 158 148 124
-0.39644 0.303409 0.371542 110 96 78
-0.409861 0.306676 0.415491 159 150 134
-0.318363 0.306218 0.415097 96 94 71
-0.377436 0.308422 0.366717 126 109 82
-0.27988 0.316201 0.444118 110 86 72
-0.423572 0.31944 0.355335 116 89 78
-0.271141 0.323999 0.388478 106 76 59
-0.4324 0.332507 0.379349 63 40 20
-0.409535 0.336159 0.39641 120 92 68
-0.27061 0.337849 0.366168 124 91 80
-0.261773 0.347143 0.366087 132 105 92
-0.280776 0.3464 0.344898 104 78 70
-0.273421 0.363379 0.368942 124 130 79
-0.259839 0.366411 0.393433 93 98 53
-0.411793 0.37444 0.383289 156 160 103
-0.291436 0.368038 0.345612 106 105 63
-0.302573 0.368025 0.332982 151 150 92
-0.300963 0.36918 0.331154 149 146 84
-0.261263 0.387001 0.396653 130 127 76
-0.278149 0.38574 0.372412 127 122 72
-0.358806 0.396275 0.33843 104 90 48
-0.399119 0.416877 0.412069 150 154 104
-0.278114 0.403876 0.38201 146 142 78
-0.3024 0.389755 0.311416 140 138 84
-0.389039 0.447677 0.431704 140 136 78
-0.292635 0.267139 0.343776 144 118 90
-0.416163 0.301457 0.417652 157 148 122
-0.419956 0.302179 0.419233 160 150 125
-0.343359 0.304865 0.404727 156 128 107
-0.426184 0.313554 0.395248 62 29 14
-0.268888 0.307978 0.443107 158 148 124
-0.361277 0.324577 0.38452 114 114 89
-0.273655 0.320744 0.348224 65 48 26
-0.437408 0.333921 0.394219 102 101 69
-0.409319 0.339067 0.423212 152 142 123
-0.253473 0.354085 0.412813 118 92 80
-0.360536 0.353573 0.361105 58 30 12
-0.420332 0.365774 0.429045 159 149 138
-0.409465 0.366288 0.427877 107 82 70
-0.303676 0.368396 0.333876 160 156 126
-0.407332 0.390365 0.399571 52 58 30
-0.330523 0.396972 0.328015 148 146 84
-0.367643 0.430927 0.430512 146 142 80
-0.347281 0.465671 0.383233 128 124 68
-0.410548 0.282517 0.38967 99 80 44
-0.405282 0.286121 0.389685 144 139 96
-0.426677 0.292396 0.431968 64 48 26
-0.330092 0.294499 0.381918 66 48 24
-0.417374 0.300667 0.393431 48 46 22
-0.398458 0.305485 0.359825 121 123 97
-0.317137 0.305854 0.38381 87 64 46
-0.270221 0.307013 0.420474 143 116 92
-0.427148 0.319507 0.364213 160 150 124
