ply
format ascii 1.0
element vertex 337
property float x
property float y
property float z
property uchar red
property uchar green
property uchar blue
end_header
-2.29318 2.64302 0.342815 0 255 0
-2.30954 2.67047 0.330615 0 255 0
-2.26166 2.69945 0.322917 0 255 0
-2.73773 2.3371 0.0443259 0 255 0
-2.51828 2.39657 -0.132109 0 255 0
-2.33781 2.59243 -0.172594 0 255 0
-2.09336 2.62863 -0.218021 0 255 0
-2.84491 2.34499 -0.0826518 0 255 0
-2.32795 2.47486 -0.260342 0 255 0
-2.13068 2.52709 -0.360054 0 255 0
-1.93961 2.53601 -0.418204 0 255 0
-1.62323 2.54828 -0.468952 0 255 0
-1.86257 2.68793 -0.283912 0 255 0
-1.7076 2.68309 -0.389462 0 255 0
-1.69586 2.55266 -0.458526 0 255 0
-1.96359 1.15244 1.76699 158 160 104
-1.87905 1.1598 1.81012 108 112 64
-1.60615 1.40833 1.87288 105 107 68
-1.48548 1.56075 1.86197 98 102 62
-1.64675 2.24182 1.60874 83 60 42
-1.71241 -2.15582 4.49834 157 157 100
-1.84618 0.872802 2.11521 159 160 103
-1.78112 1.24998 1.81842 156 156 96
-1.72643 1.17464 1.89451 158 157 98
-1.75195 1.27582 1.81495 158 156 96
-1.62125 1.42132 1.82188 152 154 98
-1.60806 1.49041 1.76121 152 156 101
-1.55685 1.59294 1.74611 156 160 104
-1.82619 2.24184 1.35752 153 145 116
-1.53233 1.57453 1.75848 156 160 104
-1.79491 2.2428 1.37003 150 142 113
-1.46123 1.63766 1.77667 155 160 108
-1.75315 2.29213 1.37166 95 66 48
-1.75315 2.29213 1.37166 95 66 48
-1.05187 1.81726 1.99661 49 40 26
-1.50059 2.35861 1.49637 83 37 28
-0.523963 1.5268 2.33008 34 26 14
-0.523963 1.5268 2.33008 34 26 14
-0.538127 1.52796 2.30855 38 30 14
-0.435064 1.45878 2.40701 42 32 17
-1.91087 1.14651 1.76053 158 158 101
-1.88519 1.21564 1.86631 154 152 90
-1.84864 1.20674 1.81069 151 150 87
-1.74499 1.24904 1.81537 138 134 76
-1.51996 1.51525 1.86878 107 110 70
-1.87459 1.15792 1.79195 136 138 86
-1.86903 1.17821 1.79891 109 114 68
-1.97185 1.10316 1.79514 161 156 123
-1.97185 1.10316 1.79514 161 156 123
-1.44766 2.17995 1.69137 117 114 100
-1.42141 2.22051 1.72099 116 90 66
-1.41587 2.22024 1.71403 64 50 26
-1.44917 2.07276 1.58505 88 92 56
-1.42391 2.11861 1.6234 120 120 98
-1.77248 1.24897 1.8057 152 150 90
-1.39757 1.18208 1.829 152 150 92
-1.39471 2.18668 1.67155 52 38 20
-1.68467 1.59605 2.00462 157 151 116
-1.72655 1.89046 1.6471 124 122 66
-1.52964 2.1541 1.76438 154 145 117
-1.47746 2.04501 1.64289 71 50 28
-1.44683 2.11636 1.6461 114 90 80
-1.45845 2.07473 1.58237 118 90 82
-1.43486 2.15098 1.63749 113 90 68
-1.28935 2.21532 1.64156 106 80 72
-1.26598 2.25133 1.68033 94 70 60
-1.27908 2.21141 1.63127 104 75 64
-1.81618 1.20437 1.80383 152 150 90
-2.05796 0.99611 1.8082 156 153 122
-2.05802 0.996499 1.80668 160 156 125
-1.90015 1.24697 1.80694 156 156 101
-1.8685 1.26107 1.79437 161 156 120
-1.77466 1.6806 1.94233 156 150 110
-1.77466 1.6806 1.94233 160 154 116
-1.75835 1.76328 1.91032 158 151 113
-1.72572 1.84199 1.93427 140 138 82
-1.71103 1.866 1.94167 153 150 92
-1.70261 1.84578 1.92103 150 146 84
-1.70261 1.84578 1.92103 142 140 84
-1.68028 1.95001 2.00448 153 146 104
-1.67175 1.37661 1.78248 156 156 96
-1.68435 1.88773 1.94334 144 140 79
-1.68363 1.86261 1.93579 158 154 112
-1.66106 1.91017 1.94402 155 148 108
-1.57256 1.45416 1.83035 98 104 60
-1.51266 1.59976 1.78267 146 139 96
-1.25595 2.53763 2.08161 158 152 120
-1.2322 2.53779 2.07031 118 118 84
-1.11265 2.53254 2.05298 116 90 74
-1.00119 1.77157 1.86962 148 142 112
-0.997706 2.4918 2.01726 74 66 38
-1.54831 1.55538 1.7925 109 106 76
-1.39924 2.26074 1.75671 150 141 114
-1.11156 2.14542 1.5489 112 120 70
-1.71672 1.45207 1.7917 134 130 68
-1.64743 1.7605 1.84789 150 147 87
-1.64743 1.7605 1.84789 146 142 80
-1.59267 1.59785 1.81209 158 150 123
-1.51059 1.51593 1.80424 150 148 87
-1.49966 1.5345 1.80892 152 146 102
-1.26538 1.82428 1.65675 94 88 52
-1.26538 1.82428 1.65675 108 105 82
-1.27586 2.21028 1.63698 145 140 106
-1.11945 2.11468 1.56507 76 62 32
-1.12517 2.17247 1.54255 47 54 38
-0.949112 1.95066 1.47015 30 32 22
-0.930254 1.93023 1.46943 154 104 52
-1.68649 1.67957 1.97684 146 144 90
-1.6532 1.66834 2.00618 148 142 96
-1.65302 1.85081 1.96311 150 146 84
-1.49495 2.21763 2.15878 161 150 127
-1.47047 1.60222 1.77246 156 150 109
-1.34466 2.47204 2.17847 150 148 88
-1.43067 1.68626 1.72568 162 152 142
-1.30088 2.45649 1.97231 144 138 114
-1.29132 2.47469 1.99422 152 151 92
-1.25834 2.53157 2.06114 157 152 116
-1.30369 1.88684 1.79375 153 146 113
-1.26694 1.82506 1.65421 158 152 110
-1.17862 2.50314 1.98584 156 147 128
-1.20398 2.44117 1.90148 154 151 119
-1.20398 2.44117 1.90148 155 150 116
-1.21007 2.43224 1.88108 140 136 98
-1.21005 2.43286 1.8816 156 146 130
-1.21479 1.78123 1.56948 156 144 137
-1.19209 1.76149 1.5139 152 140 120
-1.07581 2.43525 1.91811 150 139 118
-1.13242 1.66154 1.5182 114 90 68
-1.1629 1.73636 1.46955 113 91 67
-1.10557 2.20314 1.64898 72 39 24
-1.09638 2.19441 1.63424 65 56 35
-1.07211 2.06887 1.60024 76 56 37
-1.12208 1.69827 1.3881 102 74 56
-1.06592 2.07869 1.58077 78 62 47
-1.07186 1.61627 1.42857 91 90 60
-1.04353 2.12775 1.60192 68 64 38
-1.03259 2.06193 1.57469 104 109 65
-1.01168 2.04383 1.55112 32 36 14
-0.994267 2.03619 1.58616 54 61 32
-0.987517 1.97928 1.57661 57 68 30
-1.05006 1.60941 1.33259 57 66 26
-0.938688 1.9404 1.50415 98 102 64
-0.926605 1.92775 1.47502 118 124 74
-0.955003 1.55924 1.21232 128 130 84
-0.968201 1.59326 1.19537 128 130 85
-0.968201 1.59326 1.19537 128 130 84
-0.945451 1.60084 1.1667 122 125 77
-0.922324 1.54012 1.16816 152 158 104
-0.888198 1.54778 1.09796 62 64 26
-0.854574 1.55259 1.06488 124 208 86
-0.854574 1.55259 1.06488 90 84 58
-0.858514 1.55476 1.02897 57 57 32
-1.40624 2.26122 1.76537 81 196 175
-1.38885 2.306 1.80907 190 153 66
-1.38181 2.30346 1.8013 172 178 151
-1.39242 2.26031 1.75268 78 109 142
-1.34296 2.40602 1.92404 189 76 166
-1.31661 2.47003 1.99535 80 107 172
-1.22893 2.54713 2.04192 106 146 28
-1.05622 2.49338 1.99774 118 88 166
-1.04572 2.43733 1.93447 134 153 44
-1.13867 2.10866 1.57544 83 164 158
-1.10833 2.08655 1.57393 64 142 120
-1.1145 2.10068 1.56325 52 32 85
-0.989404 2.25103 1.78791 27 128 16
-1.40784 2.22353 1.71485 160 155 122
-1.32563 2.40858 1.91392 156 148 130
-1.02377 2.4301 1.93191 152 142 114
-1.97247 1.05724 1.80201 162 157 124
-1.89816 1.13286 1.80187 150 150 93
-1.55974 2.14105 1.81726 146 144 84
-1.44495 2.24992 1.8161 146 144 85
-1.36655 1.90255 1.75538 156 146 117
-1.27844 1.88625 1.78276 158 155 122
-1.25319 2.33658 1.7683 156 153 118
-1.22972 2.37861 1.81697 157 154 123
-1.22972 2.37861 1.81697 108 104 86
-1.23299 2.3674 1.80555 114 122 69
-1.24476 2.33306 1.76191 108 100 58
-1.09602 1.53355 1.70345 106 89 78
-1.64821 1.78869 1.76985 140 136 79
-1.64821 1.78869 1.76985 154 146 104
-1.58374 2.11361 1.76699 148 145 83
-1.54197 1.47268 1.78558 142 138 96
-1.43237 1.27682 1.83717 109 112 70
-1.45135 1.8957 1.73629 106 108 67
-1.45135 1.8957 1.73629 106 107 65
-1.28242 2.25692 1.67944 116 114 82
-1.26786 2.25178 1.67745 118 118 84
-1.26921 2.25234 1.67406 104 101 78
-1.25599 2.25484 1.67677 142 140 106
-1.12251 2.11552 1.55713 44 18 10
-1.12806 2.16025 1.53794 84 68 32
-1.1221 2.14042 1.53012 76 56 33
-1.622 2.07717 1.70558 105 107 64
-1.58279 1.79626 1.75779 146 142 81
-1.51397 1.97143 1.70698 158 151 132
-1.51397 1.97143 1.70698 131 124 102
-1.53183 2.05596 1.64676 154 150 105
-1.46857 2.06521 1.6873 158 146 136
-1.45201 2.06168 1.66713 102 98 84
-1.39554 1.79245 1.63831 107 106 72
-1.39178 1.78752 1.64716 116 120 70
-1.40754 2.0578 1.63784 108 109 62
-1.396 2.03358 1.66993 111 112 56
-1.30039 2.38251 1.85456 117 118 76
-1.35353 2.07415 1.62841 103 92 51
-1.23552 2.38422 1.8291 117 84 68
-1.26695 2.29064 1.71361 113 88 53
-1.26329 2.28976 1.7028 134 138 88
-1.22538 2.36521 1.79923 112 84 58
-1.10286 2.41728 1.86259 112 110 71
-1.09663 1.58429 1.65252 60 30 14
-1.09115 2.37508 1.83105 110 82 63
-1.13992 2.16489 1.55589 122 100 59
-1.11005 2.16543 1.55645 66 67 50
-1.02096 2.17567 1.62384 62 56 39
-1.01104 1.98404 1.56501 93 94 58
-1.00397 2.03431 1.5654 96 102 64
-0.992876 2.03774 1.54869 34 38 32
-0.988079 2.00372 1.53638 110 48 35
-0.987162 2.00226 1.53791 29 35 11
-0.928834 1.98679 1.60793 49 36 14
-1.06257 2.53289 2.06566 176 172 181
-0.97293 2.48856 2.04708 56 38 25
-1.33837 1.90012 1.76588 119 108 65
-1.29804 1.83094 1.7384 122 98 84
-1.03423 2.08187 1.56939 73 72 44
-1.05621 1.67614 1.37126 64 71 45
-1.03418 1.66066 1.33155 83 72 48
-1.07532 1.66228 1.30821 56 54 32
-0.863851 1.58279 1.06095 78 80 52
-0.852269 1.54009 1.0499 81 83 56
-0.836033 1.56966 1.02688 80 82 53
-0.824321 1.54099 0.961427 80 80 52
-0.824321 1.54099 0.961427 80 82 53
-1.62771 2.04348 1.97824 106 110 62
-1.60487 2.07133 1.8637 147 152 96
-1.41206 2.0509 1.59699 111 162 140
-0.910867 2.25103 1.86193 97 54 42
-0.895452 1.91429 1.6032 21 25 13
-1.31692 2.17347 1.50176 124 30 114
-1.24332 2.28719 1.73128 194 104 78
-1.21655 2.38238 1.82092 136 65 21
-1.2284 2.33543 1.76722 28 62 138
-1.0635 2.44015 1.93129 60 91 27
-1.0635 2.44015 1.93129 48 41 31
-1.22456 2.36604 1.7959 126 125 14
-0.867818 2.37865 2.05908 136 128 10
-0.969349 2.14902 1.69142 104 18 12
-0.943599 2.13448 1.71724 78 176 134
-0.912442 2.03254 1.62806 10 8 4
-1.2788 1.85382 1.7964 124 198 158
-1.27347 1.86715 1.80959 155 16 105
-0.798409 1.69069 1.49804 2 2 0
-1.03347 2.08037 1.57029 113 96 118
-0.940889 1.5935 1.175 124 103 68
-0.926398 1.59168 1.14481 53 22 12
-0.888024 1.53341 1.14339 62 70 35
-0.885436 1.57062 1.13676 126 138 94
-1.95382 1.07368 1.81582 151 150 90
-1.84052 1.27388 1.80215 151 149 88
-1.74867 1.80492 2.03437 132 126 101
-1.68663 1.68046 1.96475 152 145 102
-1.6592 1.62762 1.97991 152 150 92
-1.64876 1.64592 1.965 151 150 88
-1.61262 2.03608 1.97523 146 144 82
-1.55497 2.15211 2.09289 150 144 98
-1.56065 2.13199 2.00582 156 152 110
-1.53045 2.07725 1.92938 142 140 98
-1.53517 1.87167 1.90158 154 150 108
-1.46361 2.30601 1.99114 134 137 86
-1.46057 2.30199 1.97603 152 149 108
-1.41243 2.3788 2.04864 101 104 64
-1.41243 2.3788 2.04864 151 146 102
-1.4072 2.37311 2.05007 118 116 70
-1.37048 2.44049 2.1178 156 154 114
-1.2349 2.33239 1.76599 96 92 82
-1.15987 2.11463 1.57313 47 18 10
-1.1624 1.7353 1.47158 91 86 71
-1.14176 1.75321 1.52954 58 44 22
-1.08363 2.14418 1.64417 56 52 23
-1.01019 2.05563 1.56871 64 45 31
-1.02584 1.6237 1.23672 52 34 23
-0.987651 1.58436 1.21071 59 28 24
-0.878509 1.55702 1.06567 96 99 70
-0.876762 1.55257 1.05974 96 100 62
-0.833833 1.55016 1.04456 37 38 20
-0.85079 1.54143 0.994711 139 147 102
-0.830111 1.54464 0.986325 155 138 104
-0.830111 1.54464 0.986325 156 139 104
-0.819211 1.53156 0.96994 63 68 50
-1.93492 1.95785 1.59885 154 152 92
-1.87376 1.93562 1.61738 154 152 92
-0.818655 1.71585 1.55585 38 20 16
-0.78631 1.7147 1.48178 48 30 12
-0.78631 1.7147 1.48178 18 20 10
-1.93783 1.1134 1.79979 122 122 71
-1.38584 2.30503 1.81715 124 118 80
-1.37463 2.3415 1.85204 102 94 80
-1.37684 2.30352 1.79218 92 86 64
-1.34266 2.4073 1.91784 60 53 30
-1.36335 2.3084 1.81674 114 112 74
-1.34139 2.39105 1.89425 107 64 49
-1.32164 2.3844 1.84761 117 105 93
-1.32164 2.3844 1.84761 74 78 46
-1.24251 2.54264 2.06105 150 146 105
-1.23688 2.54931 2.05763 81 84 52
-1.31216 2.276 1.68745 83 65 58
-1.1582 2.55911 2.04968 94 86 63
-1.21736 2.24576 1.69513 113 96 64
-1.12373 2.0838 1.58022 118 96 63
-1.93483 1.1881 1.81341 153 152 93
-1.86281 1.22594 1.7987 160 156 122
-1.55631 2.1379 1.8319 118 116 84
-1.47864 1.56845 1.79527 150 142 108
-1.31992 2.38372 1.85467 116 94 61
-1.31992 2.38372 1.85467 96 81 54
-1.11616 1.78845 1.64652 154 162 108
-1.81359 1.30361 1.84154 149 145 82
-1.75636 1.65796 1.98656 144 140 77
-1.67509 1.67814 1.97396 121 116 63
-1.40644 2.3713 2.10344 64 67 38
-1.40486 2.37621 2.07641 152 152 112
-1.3585 2.44062 2.1304 70 64 33
-1.38447 1.8416 1.76959 157 161 106
-1.36076 1.90046 1.76251 64 45 26
-1.31531 1.97329 1.75474 106 86 53
-1.05384 2.49284 2.00174 64 68 28
-1.06051 2.05526 1.59994 90 84 55
-1.02433 2.01455 1.52407 148 148 88
-1.06092 1.68206 1.36115 72 70 38
-1.05668 1.64951 1.26467 73 91 38
-0.965091 1.94734 1.47107 79 80 93
-0.969437 1.60734 1.15152 26 31 16
-0.937256 1.6028 1.14039 80 74 64
-0.891745 1.55153 1.09634 168 124 112
